0.8 5.2 -0.2 99 0 1 1
0.8 5.7 -0.2 98 0 1 1
0.8 6.2 -0.2 89 0 1 1
0.9 4.2 -0.2 106 0 1 1
0.9 4.7 -0.2 108 0 1 1
1.3 3.6 -0.2 98 0 1 1
1.3 5.6 -0.1 92 0 1 1
1.3 6.1 -0.2 75 0 1 1
1.4 4.1 -0.2 110 0 1 1
1.4 4.6 -0.2 111 0 1 1
1.4 5.1 -0.2 107 0 1 1
1.8 3 -0.2 98 0 1 1
1.8 3.6 -0.2 103 0 1 1
1.8 12.1 0 92 0 1 1
1.9 4.1 -0.2 106 0 1 1
1.9 4.6 -0.1 105 0 1 1
1.9 5.1 -0.1 108 0 1 1
1.9 5.6 -0.1 95 0 1 1
1.9 6.1 -0.2 79 0 1 1
1.9 10.1 -1.5 78 0 1 4
1.9 10.6 -1.3 63 0 1 4
1.9 11.1 -0.9 74 0 1 4
1.9 11.6 -0.4 77 0 1 1
2.3 2.4 -0.2 96 0 1 1
2.3 3 -0.2 104 0 1 1
2.3 3.5 -0.2 103 0 1 1
2.3 15.4 -0.1 98 0 1 1
2.4 4.1 -0.1 101 0 1 1
2.4 4.6 -0.1 104 0 1 1
2.4 5.1 -0.1 106 0 1 1
2.4 5.6 -0.1 94 0 1 1
2.4 6.1 -0.1 80 0 1 1
2.4 10.5 -1.3 70 0 1 4
2.4 11 -0.9 65 0 1 4
2.4 11.6 -0.4 75 0 1 1
2.4 12.1 0 91 0 1 1
2.4 12.7 0 97 0 1 1
2.4 13.2 0 94 0 1 1
2.4 13.8 -0.1 88 0 1 1
2.4 14.3 -0.1 99 0 1 1
2.4 14.9 -0.1 92 0 1 1
2.5 10 -1.5 89 0 1 4
2.8 1.8 -0.3 108 0 1 1
2.8 2.4 -0.2 98 0 1 1
2.8 2.9 -0.2 105 0 1 1
2.8 3.5 -0.1 104 0 1 1
2.8 18.2 -0.2 95 0 1 1
2.9 4.1 -0.1 91 0 1 1
2.9 4.6 -0.1 106 0 1 1
2.9 5.1 -0.1 106 0 1 1
2.9 5.6 -0.1 97 0 1 1
2.9 6 -0.1 66 0 1 1
2.9 12.1 0 95 0 1 1
2.9 12.7 0 96 0 1 1
2.9 13.2 -0.1 98 0 1 1
2.9 13.8 -0.1 92 0 1 1
2.9 14.3 -0.1 96 0 1 1
2.9 14.9 -0.1 92 0 1 1
2.9 15.4 -0.1 104 0 1 1
2.9 16 -0.1 95 0 1 1
2.9 16.5 -0.2 95 0 1 1
2.9 17.1 -0.2 100 0 1 1
2.9 17.7 -0.2 107 0 1 1
3 2.4 -0.2 39 0 1 3
3 9.5 -1.3 48 0 1 4
3 10 -1.3 55 0 1 4
3 10.5 -1.1 57 0 1 4
3 11 -0.8 61 0 1 4
3 11.5 -0.3 76 0 1 1
3.1 2.6 0.1 37 0 1 3
3.1 3 0 33 0 1 3
3.1 3.3 0.4 45 0 1 3
3.1 3.7 0.2 44 0 1 3
3.1 4 0 35 0 1 3
3.1 4 0.2 34 0 1 3
3.2 2.8 0.4 60 0 1 3
3.2 4.5 0.1 100 0 1 3
3.3 1.2 -0.3 124 0 1 1
3.3 1.8 -0.3 117 0 1 1
3.3 2.3 -0.2 112 0 1 1
3.3 2.9 0.5 49 0 1 3
3.3 3.7 0.5 86 0 1 3
3.3 4.3 0.4 48 0 1 3
3.3 19.3 -0.3 95 0 1 1
3.3 19.6 -0.3 83 0 1 1
3.4 2.5 0.3 75 0 1 3
3.4 5 -0.1 109 0 1 1
3.4 5.5 -0.1 94 0 1 1
3.4 6 -0.1 75 0 1 1
3.4 6.5 -0.2 83 0 1 1
3.4 14.3 -0.1 93 0 1 1
3.4 14.9 -0.1 92 0 1 1
3.4 15.4 -0.1 101 0 1 1
3.4 16 -0.2 93 0 1 1
3.4 16.5 -0.2 89 0 1 1
3.4 17.1 -0.2 103 0 1 1
3.4 17.6 -0.2 107 0 1 1
3.4 18.2 -0.2 95 0 1 1
3.4 18.8 -0.2 100 0 1 1
3.5 3.3 0.6 58 0 1 3
3.5 8.5 -0.8 37 0 1 4
3.5 9 -0.8 44 0 1 4
3.5 9.5 -0.8 36 0 1 4
3.5 10 -0.8 40 0 1 4
3.5 10.5 -0.7 48 0 1 4
3.5 11 -0.4 63 0 1 1
3.5 11.5 -0.1 80 0 1 1
3.5 12.1 0 85 0 1 1
3.5 12.6 -0.1 95 0 1 1
3.5 13.2 -0.1 96 0 1 1
3.5 13.7 -0.1 88 0 1 1
3.6 2.6 0.3 81 0 1 3
3.6 4 0.6 68 0 1 3
3.6 4.1 0.6 63 0 1 3
3.6 4.8 0.3 71 0 1 3
3.7 3.1 0.7 98 0 1 3
3.7 3.7 0.6 73 0 1 3
3.7 3.8 0.6 81 0 1 3
3.8 0.6 -0.3 117 0 1 1
3.8 1.1 -0.3 130 0 1 1
3.8 1.7 -0.2 121 0 1 1
3.8 2.3 -0.2 112 0 1 1
3.8 3.7 0.7 65 0 1 3
3.8 4.1 0.6 71 0 1 3
3.8 4.4 0.6 74 0 1 3
3.9 3.6 0.7 81 0 1 3
3.9 4.1 0.7 64 0 1 3
3.9 4.9 0.6 86 0 1 3
3.9 5.2 0.1 71 0 1 3
3.9 5.5 0 88 0 1 1
3.9 6 0 89 0 1 1
3.9 6.5 0 88 0 1 1
3.9 7 -0.1 69 0 1 1
3.9 16 -0.2 90 0 1 1
3.9 16.5 -0.2 97 0 1 1
3.9 17.1 -0.2 108 0 1 1
3.9 17.6 -0.2 99 0 1 1
3.9 18.2 -0.2 89 0 1 1
3.9 18.7 -0.3 94 0 1 1
3.9 19.3 -0.3 96 0 1 1
3.9 19.6 -0.3 78 0 1 1
4 2.5 -0.2 56 0 1 3
4 2.9 0.6 100 0 1 3
4 3.5 0.8 65 0 1 3
4 3.7 0.8 68 0 1 3
4 4.8 0.7 93 0 1 3
4 7.5 -0.3 57 0 1 1
4 8 -0.3 48 0 1 1
4 8.5 -0.3 47 0 1 1
4 9 -0.3 50 0 1 1
4 9.5 -0.3 50 0 1 1
4 10 -0.3 71 0 1 1
4 10.5 -0.2 60 0 1 1
4 11 -0.1 65 0 1 1
4 11.5 0 76 0 1 1
4 12.1 0 85 0 1 1
4 12.6 -0.1 96 0 1 1
4 13.2 -0.1 102 0 1 1
4 13.7 -0.1 84 0 1 1
4 14.3 -0.1 106 0 1 1
4 14.8 -0.1 94 0 1 1
4 15.4 -0.2 102 0 1 1
4.1 2.6 0.1 63 0 1 3
4.1 2.7 0.5 63 0 1 3
4.1 3.1 0.7 118 0 1 3
4.1 3.8 0.8 80 0 1 3
4.2 3.5 0.8 83 0 1 3
4.2 4.5 0.8 83 0 1 3
4.3 0 -0.3 112 0 1 1
4.3 0.6 -0.3 122 0 1 1
4.3 1.2 -0.2 135 0 1 1
4.3 1.7 -0.2 129 0 1 1
4.3 2.3 -0.2 112 0 1 1
4.3 3.5 0.8 100 0 1 3
4.3 3.8 0.8 87 0 1 3
4.3 4.3 0.9 85 0 1 3
4.4 2.7 0.3 63 0 1 3
4.4 2.8 0.6 87 0 1 3
4.4 6 0 96 0 1 1
4.4 6.5 0 86 0 1 1
4.4 17.1 -0.2 103 0 1 1
4.4 17.6 -0.2 86 0 1 1
4.4 18.2 -0.2 91 0 1 1
4.4 18.7 -0.3 94 0 1 1
4.4 19.3 -0.3 92 0 1 1
4.4 19.4 -0.3 87 0 1 1
4.5 2.6 0 69 0 1 3
4.5 7 0 101 0 1 1
4.5 7.5 0 83 0 1 1
4.5 8 0 77 0 1 1
4.5 8.5 0 87 0 1 1
4.5 9 0 87 0 1 1
4.5 9.5 0 77 0 1 1
4.5 10 0 90 0 1 1
4.5 10.5 0 85 0 1 1
4.5 11 0 90 0 1 1
4.5 12.1 -0.1 96 0 1 1
4.5 12.6 -0.1 101 0 1 1
4.5 13.2 -0.1 100 0 1 1
4.5 13.7 -0.1 91 0 1 1
4.5 14.3 -0.1 99 0 1 1
4.5 14.8 -0.1 97 0 1 1
4.5 15.4 -0.2 101 0 1 1
4.5 15.9 -0.2 88 0 1 1
4.5 16.5 -0.2 100 0 1 1
4.6 3 0.7 116 0 1 3
4.6 3.3 0.8 108 0 1 3
4.6 3.6 0.8 101 0 1 3
4.6 4.2 0.9 98 0 1 3
4.6 11.5 0 90 0 1 1
4.8 -0.5 -0.3 101 0 1 1
4.8 0 -0.3 120 0 1 1
4.8 0.6 -0.2 133 0 1 1
4.8 1.2 -0.2 138 0 1 1
4.8 2.7 0.3 62 0 1 3
4.8 3.2 0.8 95 0 1 3
4.9 1.7 -0.2 134 0 1 1
4.9 2.3 -0.1 122 0 1 1
4.9 18.1 -0.2 90 0 1 1
4.9 18.7 -0.2 94 0 1 1
4.9 19.2 -0.3 91 0 1 1
4.9 19.3 -0.3 80 0 1 1
5 6.5 0 97 0 1 1
5 7 0 104 0 1 1
5 7.5 0 102 0 1 1
5 8 0 104 0 1 1
5 8.5 0 98 0 1 1
5 9 0 98 0 1 1
5 9.5 0 84 0 1 1
5 10 0 100 0 1 1
5 10.5 -0.1 105 0 1 1
5 12.6 -0.1 98 0 1 1
5 13.2 -0.1 101 0 1 1
5 13.7 -0.1 89 0 1 1
5 14.3 -0.1 104 0 1 1
5 14.8 -0.2 93 0 1 1
5 15.4 -0.2 106 0 1 1
5 15.9 -0.2 88 0 1 1
5 16.5 -0.2 93 0 1 1
5 17 -0.2 99 0 1 1
5 17.6 -0.2 87 0 1 1
5.1 2.9 0.8 105 0 1 3
5.1 11 -0.1 104 0 1 1
5.1 11.5 -0.1 92 0 1 1
5.1 12 -0.1 92 0 1 1
5.2 2.8 0.4 56 0 1 3
5.2 2.9 0.5 82 0 1 3
5.3 -0.5 -0.3 105 0 1 1
5.3 0 -0.2 122 0 1 1
5.3 2.7 0.2 68 0 1 3
5.3 3.7 0.9 101 0 1 3
5.4 0.6 -0.2 136 0 1 1
5.4 1.2 -0.2 142 0 1 1
5.4 1.7 -0.1 139 0 1 1
5.4 2.3 -0.1 128 0 1 1
5.4 2.7 0 75 0 1 3
5.4 2.8 0.1 88 0 1 3
5.4 13.1 0 101 0 1 2
5.4 13.2 0 82 0 1 2
5.4 19.1 -0.2 80 0 1 1
5.5 7 0 109 0 1 1
5.5 7.5 0 97 0 1 1
5.5 8 0 104 0 1 1
5.5 8.5 0 90 0 1 1
5.5 9 0 101 0 1 1
5.5 9.5 0 83 0 1 1
5.5 12.8 -0.1 35 0 1 2
5.5 13.2 0 64 0 1 2
5.5 13.3 0 88 0 1 2
5.5 13.7 -0.1 106 0 1 1
5.5 14.3 -0.1 103 0 1 1
5.5 14.8 -0.2 99 0 1 1
5.5 15.4 -0.2 105 0 1 1
5.5 15.9 -0.2 88 0 1 1
5.5 16.5 -0.2 94 0 1 1
5.5 17 -0.2 96 0 1 1
5.5 17.6 -0.2 93 0 1 1
5.5 18.1 -0.2 93 0 1 1
5.5 18.7 -0.2 94 0 1 1
5.6 8.2 0 42 0 1 2
5.6 8.2 0.1 48 0 1 2
5.6 10 -0.1 97 0 1 1
5.6 10.5 -0.1 105 0 1 1
5.6 11 -0.1 104 0 1 1
5.6 11.5 -0.1 90 0 1 1
5.6 12 -0.1 97 0 1 1
5.6 12.6 -0.1 95 0 1 1
5.6 13.3 0.1 90 0 1 2
5.7 8.3 0.1 67 0 1 2
5.7 8.3 0.2 48 0 1 2
5.7 12.8 0 40 0 1 2
5.7 12.9 0.1 71 0 1 2
5.8 -1.1 -0.3 104 0 1 1
5.8 -0.5 -0.2 109 0 1 1
5.8 7.9 0.1 34 0 1 2
5.8 8.4 0 73 0 1 2
5.8 8.4 0.1 100 0 1 2
5.8 8.4 0.2 94 0 1 2
5.8 12.7 -0.1 38 0 1 2
5.8 12.7 0.1 73 0 1 2
5.8 13.1 0.1 87 0 1 2
5.9 0.1 -0.2 127 0 1 1
5.9 0.6 -0.2 139 0 1 1
5.9 1.2 -0.1 149 0 1 1
5.9 1.7 -0.1 148 0 1 1
5.9 2.3 0 133 0 1 1
5.9 7.9 0.2 40 0 1 2
5.9 8 0.2 69 0 1 2
5.9 8.4 0.2 88 0 1 2
5.9 12.7 0.1 62 0 1 2
5.9 12.8 0.1 92 0 1 2
6 2.9 0 125 0 1 1
6 7.5 0 107 0 1 1
6 7.8 0 39 0 1 2
6 12.6 0 34 0 1 2
6 12.6 0.1 48 0 1 2
6 13 0.2 104 0 1 2
6 14.8 -0.2 88 0 1 1
6 15.3 -0.2 104 0 1 1
6 15.9 -0.2 86 0 1 1
6 16.4 -0.2 98 0 1 1
6 17 -0.2 104 0 1 1
6 17.5 -0.2 96 0 1 1
6 18.1 -0.2 94 0 1 1
6 18.7 -0.2 98 0 1 1
6 18.9 -0.2 87 0 1 1
6.1 7.8 0.2 96 0 1 2
6.1 7.9 0.3 88 0 1 2
6.1 8.3 0.2 83 0 1 2
6.1 9 0 105 0 1 1
6.1 9.5 -0.1 87 0 1 1
6.1 10 -0.1 105 0 1 1
6.1 10.5 -0.1 101 0 1 1
6.1 11 -0.1 102 0 1 1
6.1 11.5 -0.1 88 0 1 1
6.1 12 -0.1 103 0 1 1
6.1 12.6 -0.1 80 0 1 1
6.1 12.6 0.1 108 0 1 2
6.2 7.7 0.1 33 0 1 2
6.2 7.8 0.2 62 0 1 2
6.2 8.1 0.3 97 0 1 2
6.2 12.6 -0.1 91 0 1 2
6.2 12.6 0.1 104 0 1 2
6.3 7.7 0.2 52 0 1 2
6.4 -1.1 -0.2 102 0 1 1
6.4 -0.5 -0.2 113 0 1 1
6.4 0.1 -0.1 128 0 1 1
6.4 0.6 -0.1 137 0 1 1
6.4 1.2 -0.1 150 0 1 1
6.4 7.7 0 73 0 1 2
6.4 7.7 0.2 52 0 1 2
6.4 12.8 -0.1 95 0 1 2
6.4 12.8 0.1 99 0 1 2
6.4 12.9 0 99 0 1 2
6.5 1.7 0 143 0 1 1
6.5 2.3 0 139 0 1 1
6.5 2.9 0.1 123 0 1 1
6.5 3.4 0.1 119 0 1 1
6.5 7.7 0.1 100 0 1 2
6.5 7.8 0.2 103 0 1 2
6.5 15.3 -0.2 103 0 1 1
6.5 15.9 -0.2 90 0 1 1
6.5 16.4 -0.2 106 0 1 1
6.5 17 -0.2 101 0 1 1
6.5 17.5 -0.2 96 0 1 1
6.5 18.1 -0.2 89 0 1 1
6.5 18.6 -0.2 102 0 1 1
6.5 18.8 -0.2 78 0 1 1
6.6 7.5 0 102 0 1 1
6.6 8 0.2 101 0 1 2
6.6 10 -0.1 102 0 1 1
6.6 10.5 -0.1 98 0 1 1
6.6 11 -0.1 99 0 1 1
6.6 11.5 -0.1 95 0 1 1
6.6 12 -0.1 105 0 1 1
6.6 12.6 -0.1 94 0 1 1
6.6 13.1 -0.2 100 0 1 1
6.9 -1 -0.2 106 0 1 1
6.9 -0.5 -0.1 117 0 1 1
6.9 0.1 -0.1 128 0 1 1
6.9 0.6 -0.1 135 0 1 1
7 1.2 0 150 0 1 1
7 1.7 0 147 0 1 1
7 2.3 0.1 138 0 1 1
7 2.9 0.1 137 0 1 1
7 17 -0.2 99 0 1 1
7 17.5 -0.2 97 0 1 1
7 18.1 -0.2 95 0 1 1
7 18.6 -0.2 81 0 1 1
7.1 3.4 0.1 130 0 1 1
7.1 4 0.2 99 0 1 1
7.1 7.5 0 87 0 1 1
7.1 8 0 101 0 1 1
7.1 10 -0.1 99 0 1 1
7.1 10.5 -0.1 97 0 1 1
7.1 11 -0.1 103 0 1 1
7.1 11.5 -0.2 97 0 1 1
7.1 12 -0.2 103 0 1 1
7.1 12.6 -0.2 96 0 1 1
7.1 13.1 -0.2 102 0 1 1
7.1 13.7 -0.2 101 0 1 1
7.1 14.2 -0.2 100 0 1 1
7.1 15.9 -0.2 91 0 1 1
7.1 16.4 -0.2 102 0 1 1
7.4 -1 -0.1 108 0 1 1
7.4 -0.5 -0.1 120 0 1 1
7.5 0.1 0 131 0 1 1
7.5 0.6 0 144 0 1 1
7.5 1.2 0 155 0 1 1
7.5 1.8 0.1 158 0 1 1
7.5 2.3 0.1 144 0 1 1
7.6 2.9 0.1 135 0 1 1
7.6 3.4 0.2 130 0 1 1
7.6 4 0.2 109 0 1 1
7.6 7.5 0 97 0 1 1
7.6 8 0 106 0 1 1
7.6 8.5 0 98 0 1 1
7.6 9 0 96 0 1 1
7.6 9.5 -0.1 112 0 1 1
7.6 10 -0.1 84 0 1 1
7.6 10.5 -0.1 92 0 1 1
7.6 11 -0.1 106 0 1 1
7.6 11.5 -0.2 106 0 1 1
7.6 12 -0.2 103 0 1 1
7.6 12.6 -0.2 95 0 1 1
7.6 13.1 -0.2 100 0 1 1
7.6 13.7 -0.2 106 0 1 1
7.6 14.2 -0.2 102 0 1 1
7.6 14.8 -0.2 92 0 1 1
7.6 15.3 -0.2 95 0 1 1
7.6 15.9 -0.2 92 0 1 1
7.6 16.4 -0.2 98 0 1 1
7.6 16.9 -0.2 102 0 1 1
7.6 17.5 -0.2 103 0 1 1
7.6 18 -0.2 100 0 1 1
7.6 18.4 -0.2 87 0 1 1
7.7 -1 -0.1 59 0 1 5
7.9 -1.3 0.1 55 0 1 5
7.9 -0.7 0.1 55 0 1 5
7.9 -0.1 0.1 53 0 1 5
8 0.4 0.1 48 0 1 5
8 0.7 0 53 0 1 1
8 1 0.1 144 0 1 5
8 1.2 0.1 156 0 1 1
8.1 -1 0.3 58 0 1 5
8.1 -0.4 0.3 59 0 1 5
8.1 1.8 0.1 153 0 1 1
8.1 2.3 0.1 149 0 1 1
8.1 2.9 0.2 140 0 1 1
8.1 3.4 0.2 134 0 1 1
8.1 5 0.2 106 0 1 1
8.1 7.5 0 95 0 1 1
8.1 8 0 101 0 1 1
8.1 8.5 0 100 0 1 1
8.1 9 -0.1 92 0 1 1
8.1 9.5 -0.1 99 0 1 1
8.1 10 -0.1 89 0 1 1
8.1 10.5 -0.1 93 0 1 1
8.1 11 -0.2 101 0 1 1
8.1 11.5 -0.2 107 0 1 1
8.1 12 -0.2 103 0 1 1
8.1 12.6 -0.2 102 0 1 1
8.1 13.1 -0.2 104 0 1 1
8.1 13.7 -0.2 104 0 1 1
8.1 14.2 -0.2 103 0 1 1
8.1 14.7 -0.2 91 0 1 1
8.1 15.3 -0.2 96 0 1 1
8.1 15.8 -0.2 93 0 1 1
8.1 16.4 -0.2 88 0 1 1
8.1 16.9 -0.2 93 0 1 1
8.1 17.5 -0.2 102 0 1 1
8.1 18 -0.2 101 0 1 1
8.1 18.2 -0.2 89 0 1 1
8.2 0.1 0.2 50 0 1 5
8.2 0.7 0.2 49 0 1 5
8.2 4 0.2 117 0 1 1
8.2 4.5 0.2 110 0 1 1
8.3 -1.3 0.5 54 0 1 5
8.3 -0.7 0.5 57 0 1 5
8.3 1.3 0.2 50 0 1 5
8.3 1.8 0.2 39 0 1 5
8.4 -0.2 0.4 58 0 1 5
8.4 0.4 0.4 49 0 1 5
8.4 2.4 0.2 148 0 1 5
8.4 18 -0.2 103 0 1 1
8.5 -1 0.6 58 0 1 5
8.5 1 0.4 50 0 1 5
8.5 1.5 0.4 49 0 1 5
8.6 -0.5 0.6 57 0 1 5
8.6 0.1 0.6 56 0 1 5
8.6 0.7 0.6 57 0 1 5
8.6 2.1 0.4 40 0 1 5
8.6 2.7 0.3 52 0 1 5
8.6 9 -0.1 94 0 1 1
8.6 9.5 -0.1 103 0 1 1
8.6 10 -0.1 92 0 1 1
8.6 10.5 -0.1 94 0 1 1
8.6 11 -0.2 104 0 1 1
8.6 11.5 -0.2 113 0 1 1
8.6 12 -0.2 103 0 1 1
8.6 12.6 -0.2 104 0 1 1
8.6 13.1 -0.2 102 0 1 1
8.6 13.6 -0.2 105 0 1 1
8.6 14.2 -0.2 103 0 1 1
8.6 14.7 -0.2 86 0 1 1
8.6 15.3 -0.2 93 0 1 1
8.6 15.8 -0.2 95 0 1 1
8.6 16.4 -0.2 88 0 1 1
8.6 16.9 -0.2 94 0 1 1
8.6 17.5 -0.2 101 0 1 1
8.6 17.9 -0.2 98 0 1 1
8.7 -1.3 0.8 53 0 1 5
8.7 -0.8 0.8 60 0 1 5
8.7 1.2 0.6 48 0 1 5
8.7 1.8 0.6 49 0 1 5
8.7 3.2 0.2 143 0 1 5
8.7 3.4 0.2 139 0 1 1
8.7 4 0.3 120 0 1 1
8.7 4.5 0.2 107 0 1 1
8.7 5 0.2 103 0 1 1
8.7 5.5 0.2 109 0 1 1
8.7 7 0.1 98 0 1 1
8.7 7.5 0 102 0 1 1
8.7 8 0 107 0 1 1
8.7 8.5 0 96 0 1 1
8.8 -0.2 0.8 59 0 1 5
8.8 0.4 0.8 68 0 1 5
8.8 2.4 0.5 53 0 1 5
8.8 2.9 0.5 50 0 1 5
8.9 -1.1 1 54 0 1 5
8.9 0.9 0.8 55 0 1 5
8.9 1.5 0.8 55 0 1 5
8.9 3.5 0.3 54 0 1 5
9 -0.5 0.9 67 0 1 5
9 0.1 0.9 68 0 1 5
9 2.1 0.8 53 0 1 5
9 2.6 0.7 58 0 1 5
9.1 -1.4 1.2 54 0 1 5
9.1 0.6 1 62 0 1 5
9.1 1.2 1 64 0 1 5
9.1 3.2 0.6 60 0 1 5
9.1 3.7 0.4 61 0 1 5
9.1 10.5 -0.2 108 0 1 1
9.1 11 -0.2 108 0 1 1
9.1 11.5 -0.2 113 0 1 1
9.1 12 -0.2 102 0 1 1
9.1 12.6 -0.2 102 0 1 1
9.1 13.1 -0.2 102 0 1 1
9.1 13.6 -0.2 99 0 1 1
9.1 14.2 -0.2 103 0 1 1
9.1 14.7 -0.2 86 0 1 1
9.1 15.3 -0.2 93 0 1 1
9.1 15.8 -0.2 97 0 1 1
9.1 16.3 -0.2 92 0 1 1
9.1 16.9 -0.2 92 0 1 1
9.1 17.4 -0.2 104 0 1 1
9.1 17.6 -0.2 93 0 1 1
9.2 -0.8 1.1 70 0 1 5
9.2 -0.2 1.1 76 0 1 5
9.2 1.8 1 60 0 1 5
9.2 2.3 0.9 62 0 1 5
9.2 4.5 0.3 107 0 1 1
9.2 5 0.2 103 0 1 1
9.2 5.5 0.2 91 0 1 1
9.2 6 0.2 99 0 1 1
9.2 6.5 0.1 105 0 1 1
9.2 7 0.1 88 0 1 1
9.2 7.5 0.1 103 0 1 1
9.2 8 0 106 0 1 1
9.2 8.5 0 105 0 1 1
9.2 9 -0.1 94 0 1 1
9.2 9.5 -0.1 106 0 1 1
9.2 10 -0.1 93 0 1 1
9.3 -1.1 1.3 66 0 1 5
9.3 0.3 1.1 79 0 1 5
9.3 0.9 1.1 67 0 1 5
9.3 2.9 0.8 69 0 1 5
9.3 3.4 0.7 55 0 1 5
9.4 -0.5 1.2 60 0 1 5
9.4 0 1.2 65 0 1 5
9.4 1.5 1.1 63 0 1 5
9.4 2 1.1 52 0 1 5
9.4 2.6 1.1 65 0 1 5
9.4 4 0.5 67 0 1 5
9.4 4.6 0.3 108 0 1 5
9.5 -1.4 1.5 74 0 1 5
9.5 0.6 1.3 82 0 1 5
9.5 1.2 1.3 80 0 1 5
9.5 3.1 0.9 70 0 1 5
9.5 3.7 0.8 67 0 1 5
9.5 17.4 -0.2 99 0 1 1
9.6 -0.8 1.4 83 0 1 5
9.6 -0.3 1.4 89 0 1 5
9.6 1.7 1.3 77 0 1 5
9.6 2.3 1.3 73 0 1 5
9.6 4.3 0.5 77 0 1 5
9.6 11.5 -0.3 111 0 1 1
9.6 12 -0.2 104 0 1 1
9.6 12.5 -0.2 106 0 1 1
9.6 13.1 -0.2 99 0 1 1
9.6 13.6 -0.2 101 0 1 1
9.7 0.3 1.4 76 0 1 5
9.7 0.9 1.4 92 0 1 5
9.7 2.8 1.2 72 0 1 5
9.7 3.4 1 55 0 1 5
9.7 5 0.3 103 0 1 1
9.7 5.5 0.2 96 0 1 1
9.7 6 0.2 105 0 1 1
9.7 6.5 0.1 106 0 1 1
9.7 7 0.1 111 0 1 1
9.7 7.5 0.1 104 0 1 1
9.7 8 0 103 0 1 1
9.7 8.5 0 107 0 1 1
9.7 9 -0.1 89 0 1 1
9.7 9.5 -0.1 102 0 1 1
9.7 10 -0.1 92 0 1 1
9.7 10.5 -0.2 111 0 1 1
9.7 11 -0.2 106 0 1 1
9.7 14.2 -0.2 104 0 1 1
9.7 14.7 -0.2 102 0 1 1
9.7 15.3 -0.2 93 0 1 1
9.7 15.8 -0.2 91 0 1 1
9.7 16.3 -0.2 92 0 1 1
9.7 16.9 -0.2 97 0 1 1
9.7 17.3 -0.2 83 0 1 1
9.8 -1.1 1.6 78 0 1 5
9.8 -0.6 1.5 87 0 1 5
9.8 1.4 1.4 90 0 1 5
9.8 2 1.4 81 0 1 5
9.8 4 0.8 67 0 1 5
9.8 4.5 0.5 75 0 1 5
9.9 0 1.5 90 0 1 5
9.9 0.6 1.5 97 0 1 5
9.9 2.5 1.4 89 0 1 5
9.9 3.1 1.2 81 0 1 5
10 -1.4 1.8 78 0 1 5
10 -0.9 1.7 92 0 1 5
10 1.1 1.5 101 0 1 5
10 1.7 1.6 102 0 1 5
10 3.7 1 77 0 1 5
10 4.2 0.8 81 0 1 5
10.1 -0.3 1.6 97 0 1 5
10.1 0.3 1.6 102 0 1 5
10.1 0.8 1.6 114 0 1 5
10.1 2.2 1.5 91 0 1 5
10.1 2.8 1.4 94 0 1 5
10.1 3.4 1.2 83 0 1 5
10.1 4.8 0.5 76 0 1 5
10.2 -1.2 1.9 97 0 1 5
10.2 -0.6 1.8 100 0 1 5
10.2 1.4 1.7 126 0 1 5
10.2 1.9 1.6 114 0 1 5
10.2 3.9 1 88 0 1 5
10.2 4.5 0.7 89 0 1 5
10.2 7 0.1 111 0 1 1
10.2 7.5 0.1 106 0 1 1
10.2 8 0 90 0 1 1
10.2 8.5 0 109 0 1 1
10.2 9 -0.1 86 0 1 1
10.2 9.5 -0.1 98 0 1 1
10.2 10 -0.1 89 0 1 1
10.2 10.5 -0.2 111 0 1 1
10.2 11 -0.2 107 0 1 1
10.2 11.5 -0.3 110 0 1 1
10.2 12 -0.3 104 0 1 1
10.2 12.5 -0.3 103 0 1 1
10.2 13.1 -0.2 99 0 1 1
10.2 13.6 -0.2 104 0 1 1
10.2 14.2 -0.2 103 0 1 1
10.2 14.7 -0.2 106 0 1 1
10.2 15.2 -0.2 87 0 1 1
10.2 15.8 -0.2 98 0 1 1
10.2 16.3 -0.2 93 0 1 1
10.2 16.9 -0.2 110 0 1 1
10.2 17.1 -0.2 94 0 1 1
10.3 0 1.7 106 0 1 5
10.3 0.5 1.7 117 0 1 5
10.3 2.5 1.6 100 0 1 5
10.3 3.1 1.4 92 0 1 5
10.3 5.1 0.4 89 0 1 5
10.3 5.5 0.2 102 0 1 1
10.3 6 0.2 105 0 1 1
10.3 6.5 0.2 106 0 1 1
10.4 -1.5 2.1 100 0 1 5
10.4 -0.9 2 109 0 1 5
10.4 1.1 1.8 144 0 1 5
10.4 1.6 1.8 148 0 1 5
10.4 3.6 1.2 91 0 1 5
10.4 4.2 0.9 91 0 1 5
10.5 -0.3 1.9 120 0 1 5
10.5 0.2 1.9 132 0 1 5
10.5 2.2 1.7 113 0 1 5
10.5 2.8 1.6 79 0 1 5
10.5 4.8 0.6 104 0 1 5
10.5 5.3 0.3 100 0 1 5
10.6 -1.2 2.1 128 0 1 5
10.6 0.8 1.8 147 0 1 5
10.6 1.3 1.8 157 0 1 5
10.6 3.3 1.4 83 0 1 5
10.6 3.9 1.2 93 0 1 5
10.6 16.8 -0.2 107 0 1 1
10.7 -0.6 2 133 0 1 5
10.7 -0.1 2 139 0 1 5
10.7 1.9 1.8 147 0 1 5
10.7 2.5 1.7 112 0 1 5
10.7 4.5 0.8 86 0 1 5
10.7 5 0.5 104 0 1 5
10.7 8 0 84 0 1 1
10.7 8.5 0 110 0 1 1
10.7 9 -0.1 97 0 1 1
10.7 9.5 -0.1 99 0 1 1
10.7 10 -0.2 92 0 1 1
10.7 10.5 -0.2 106 0 1 1
10.7 11 -0.3 102 0 1 1
10.7 11.5 -0.3 106 0 1 1
10.7 12 -0.3 99 0 1 1
10.7 12.5 -0.3 102 0 1 1
10.7 13.1 -0.3 102 0 1 1
10.7 13.6 -0.3 103 0 1 1
10.7 14.1 -0.2 87 0 1 1
10.7 14.7 -0.2 108 0 1 1
10.7 15.2 -0.2 83 0 1 1
10.7 15.8 -0.2 91 0 1 1
10.7 16.3 -0.2 90 0 1 1
10.7 16.8 -0.2 85 0 1 1
10.8 -1.5 2.3 134 0 1 5
10.8 -0.9 2.2 148 0 1 5
10.8 0.5 1.9 148 0 1 5
10.8 1 1.9 167 0 1 5
10.8 3 1.6 91 0 1 5
10.8 3.6 1.4 100 0 1 5
10.8 5.5 0.3 104 0 1 1
10.8 6 0.2 108 0 1 1
10.8 6.5 0.2 109 0 1 1
10.8 7 0.1 112 0 1 1
10.8 7.5 0.1 106 0 1 1
10.9 -0.4 2.1 154 0 1 5
10.9 0.2 2 159 0 1 5
10.9 1.6 1.9 157 0 1 5
10.9 2.2 1.9 131 0 1 5
10.9 2.7 1.7 110 0 1 5
10.9 4.2 1.1 80 0 1 5
10.9 4.7 0.7 100 0 1 5
10.9 5.3 0.3 91 0 1 5
11 -1.2 2.3 155 0 1 5
11 0.7 2 174 0 1 5
11 1.3 2 173 0 1 5
11 3.3 1.5 105 0 1 5
11 3.9 1.3 84 0 1 5
11.1 -0.7 2.2 171 0 1 5
11.1 -0.1 2.2 171 0 1 5
11.1 1.9 2 145 0 1 5
11.1 2.4 1.9 119 0 1 5
11.1 4.4 0.9 75 0 1 5
11.1 5 0.6 84 0 1 5
11.1 16.6 -0.2 79 0 1 1
11.2 -1.5 2.5 143 0 1 5
11.2 0.4 2.1 178 0 1 5
11.2 1 2.1 180 0 1 5
11.2 3 1.7 102 0 1 5
11.2 3.6 1.5 81 0 1 5
11.2 9 -0.1 114 0 1 1
11.2 9.5 -0.1 108 0 1 1
11.2 10 -0.2 100 0 1 1
11.2 10.5 -0.2 108 0 1 1
11.2 11 -0.3 106 0 1 1
11.2 12 -0.3 104 0 1 1
11.2 12.5 -0.3 102 0 1 1
11.2 13.1 -0.3 109 0 1 1
11.2 13.6 -0.3 106 0 1 1
11.2 14.1 -0.2 92 0 1 1
11.2 14.7 -0.2 109 0 1 1
11.2 15.2 -0.2 88 0 1 1
11.2 15.7 -0.2 96 0 1 1
11.2 16.3 -0.2 96 0 1 1
11.2 16.5 -0.2 82 0 1 1
11.3 -1 2.4 167 0 1 5
11.3 -0.4 2.3 175 0 1 5
11.3 1.6 2 167 0 1 5
11.3 2.1 2 123 0 1 5
11.3 4.1 1.1 80 0 1 5
11.3 5.5 0.3 94 0 1 1
11.3 6 0.2 109 0 1 1
11.3 6.5 0.2 113 0 1 1
11.3 7 0.1 110 0 1 1
11.3 7.5 0.1 111 0 1 1
11.3 8 0 90 0 1 1
11.3 8.5 0 108 0 1 1
11.4 0.1 2.2 180 0 1 5
11.4 0.7 2.2 184 0 1 5
11.4 2.7 1.8 105 0 1 5
11.4 3.3 1.6 89 0 1 5
11.4 16.3 -0.2 82 0 1 1
11.5 -1.3 2.5 158 0 1 5
11.5 -0.7 2.4 177 0 1 5
11.5 1.3 2.1 177 0 1 5
11.5 1.8 2.1 151 0 1 5
11.5 3.8 1.3 78 0 1 5
11.6 -1.6 2.6 136 0 1 5
11.6 -0.2 2.3 182 0 1 5
11.6 0.4 2.2 184 0 1 5
11.6 1 2.2 181 0 1 5
11.6 2.4 1.9 94 0 1 5
11.6 3 1.8 92 0 1 5
11.6 3.5 1.5 100 0 1 5
11.7 -1 2.5 167 0 1 5
11.7 -0.5 2.4 182 0 1 5
11.7 1.5 2.1 162 0 1 5
11.7 2.1 2 102 0 1 5
11.7 9.5 -0.1 103 0 1 1
11.7 10 -0.2 102 0 1 1
11.7 10.5 -0.2 105 0 1 1
11.7 11 -0.3 108 0 1 1
11.7 12 -0.3 104 0 1 1
11.7 12.5 -0.3 102 0 1 1
11.7 13.1 -0.3 105 0 1 1
11.7 13.6 -0.3 107 0 1 1
11.7 14.1 -0.3 95 0 1 1
11.7 14.7 -0.2 107 0 1 1
11.7 15.2 -0.2 113 0 1 1
11.7 15.7 -0.2 96 0 1 1
11.7 16 -0.2 91 0 1 1
11.8 0.1 2.3 185 0 1 5
11.8 0.7 2.3 182 0 1 5
11.8 2.7 1.9 108 0 1 5
11.8 3.2 1.7 103 0 1 5
11.8 6 0.3 105 0 1 1
11.8 6.5 0.2 113 0 1 1
11.8 7 0.2 111 0 1 1
11.8 7.5 0.1 109 0 1 1
11.8 8 0 83 0 1 1
11.8 8.5 0 104 0 1 1
11.8 9 -0.1 112 0 1 1
11.9 -1.3 2.6 153 0 1 5
11.9 -0.8 2.5 176 0 1 5
11.9 1.2 2.2 173 0 1 5
11.9 1.8 2.1 133 0 1 5
12 -0.2 2.4 183 0 1 5
12 0.4 2.3 183 0 1 5
12 2.4 2 95 0 1 5
12 2.9 1.8 114 0 1 5
12.1 -1.6 2.7 137 0 1 5
12.1 -1.1 2.6 165 0 1 5
12.1 0.9 2.3 178 0 1 5
12.1 1.5 2.2 160 0 1 5
12.1 15.7 -0.2 75 0 1 1
12.2 -0.5 2.5 181 0 1 5
12.2 0.1 2.4 184 0 1 5
12.2 2.1 2.1 86 0 1 5
12.2 2.6 1.9 104 0 1 5
12.2 11 -0.3 107 0 1 1
12.2 11.5 -0.3 97 0 1 1
12.2 12 -0.3 100 0 1 1
12.2 12.5 -0.3 101 0 1 1
12.2 13.1 -0.3 103 0 1 1
12.2 13.6 -0.3 107 0 1 1
12.2 14.1 -0.2 78 0 1 1
12.2 14.7 -0.2 107 0 1 1
12.3 -1.4 2.7 150 0 1 5
12.3 -0.8 2.6 173 0 1 5
12.3 0.6 2.3 181 0 1 5
12.3 1.2 2.3 168 0 1 5
12.3 1.8 2.1 145 0 1 5
12.3 8 0 91 0 1 1
12.3 8.5 0 104 0 1 1
12.3 9 -0.1 111 0 1 1
12.3 9.5 -0.1 107 0 1 1
12.3 10 -0.2 102 0 1 1
12.3 10.5 -0.2 99 0 1 1
12.3 15.2 -0.2 112 0 1 1
12.3 15.6 -0.2 88 0 1 1
12.4 -0.2 2.5 182 0 1 5
12.4 0.3 2.4 184 0 1 5
12.4 2.3 2 118 0 1 5
12.4 6 0.2 107 0 1 1
12.4 6.5 0.2 115 0 1 1
12.4 7 0.1 116 0 1 1
12.4 7.5 0.1 114 0 1 1
12.5 -1.7 2.7 130 0 1 5
12.5 -1.1 2.7 161 0 1 5
12.5 0.9 2.3 175 0 1 5
12.5 1.5 2.2 155 0 1 5
12.6 -0.5 2.6 180 0 1 5
12.6 0 2.5 185 0 1 5
12.6 2 2.1 138 0 1 5
12.7 -1.4 2.8 150 0 1 5
12.7 0.6 2.4 175 0 1 5
12.7 1.2 2.3 161 0 1 5
12.7 15.2 -0.2 81 0 1 1
12.8 -0.8 2.7 173 0 1 5
12.8 -0.3 2.6 184 0 1 5
12.8 1.7 2.2 133 0 1 5
12.8 9.5 -0.1 108 0 1 1
12.8 10 -0.2 102 0 1 1
12.8 10.5 -0.2 108 0 1 1
12.8 11 -0.3 109 0 1 1
12.8 11.5 -0.3 96 0 1 1
12.8 12 -0.3 104 0 1 1
12.8 12.5 -0.3 102 0 1 1
12.8 13.1 -0.3 108 0 1 1
12.8 13.6 -0.2 106 0 1 1
12.8 14.2 -0.2 91 0 1 1
12.8 14.7 -0.2 96 0 1 1
12.8 15.2 -0.2 85 0 1 1
12.9 -1.7 2.8 136 0 1 5
12.9 0.3 2.5 181 0 1 5
12.9 0.9 2.4 168 0 1 5
12.9 7 0.1 116 0 1 1
12.9 7.5 0.1 115 0 1 1
12.9 8 0 97 0 1 1
12.9 8.5 0 106 0 1 1
12.9 9 -0.1 105 0 1 1
13 -1.1 2.8 159 0 1 5
13 -0.6 2.7 182 0 1 5
13 1.4 2.3 150 0 1 5
13 2 2.1 146 0 1 5
13 6 0.2 76 0 1 1
13 6.5 0.2 110 0 1 1
13.1 -2 2.9 131 0 1 5
13.1 -1.4 2.9 150 0 1 5
13.1 0 2.6 182 0 1 5
13.1 0.6 2.5 175 0 1 5
13.1 1.1 2.4 157 0 1 5
13.2 -0.9 2.8 171 0 1 5
13.2 -0.3 2.7 187 0 1 5
13.2 1.7 2.2 138 0 1 5
13.2 2.3 2 145 0 1 5
13.3 -1.7 2.9 142 0 1 5
13.3 0.3 2.6 180 0 1 5
13.3 0.8 2.5 166 0 1 5
13.3 11 -0.2 108 0 1 1
13.3 11.5 -0.3 99 0 1 1
13.3 12 -0.3 100 0 1 1
13.3 12.6 -0.3 102 0 1 1
13.3 13.1 -0.2 106 0 1 1
13.3 13.6 -0.2 113 0 1 1
13.3 14.2 -0.2 88 0 1 1
13.3 14.7 -0.2 83 0 1 1
13.4 -1.2 2.9 159 0 1 5
13.4 -0.6 2.8 182 0 1 5
13.4 1.4 2.3 142 0 1 5
13.4 2 2.2 126 0 1 5
13.4 8.5 0 107 0 1 1
13.4 9 -0.1 107 0 1 1
13.4 9.5 -0.1 108 0 1 1
13.4 10 -0.2 106 0 1 1
13.4 10.5 -0.2 107 0 1 1
13.5 -2 3 131 0 1 5
13.5 0 2.7 182 0 1 5
13.5 0.5 2.6 171 0 1 5
13.5 6.5 0.2 115 0 1 1
13.5 7 0.1 118 0 1 1
13.5 7.5 0.1 116 0 1 1
13.5 8 0 102 0 1 1
13.6 -1.5 3 151 0 1 5
13.6 -0.9 2.9 169 0 1 5
13.6 1.1 2.4 154 0 1 5
13.6 1.7 2.3 132 0 1 5
13.7 -0.3 2.8 183 0 1 5
13.7 0.2 2.7 176 0 1 5
13.7 2.2 2.1 144 0 1 5
13.8 -1.8 3 138 0 1 5
13.8 -1.2 3 158 0 1 5
13.8 -0.6 2.9 181 0 1 5
13.8 0.8 2.5 163 0 1 5
13.8 1.4 2.4 137 0 1 5
13.8 1.9 2.2 116 0 1 5
13.8 13.6 -0.2 112 0 1 1
13.8 14.2 -0.2 98 0 1 1
13.8 14.3 -0.2 79 0 1 1
13.9 -2.1 3.1 111 0 1 5
13.9 -0.1 2.8 185 0 1 5
13.9 0.5 2.7 171 0 1 5
13.9 9.5 -0.1 107 0 1 1
13.9 10 -0.1 107 0 1 1
13.9 10.5 -0.2 103 0 1 1
13.9 11 -0.2 106 0 1 1
13.9 11.5 -0.3 87 0 1 1
13.9 12 -0.3 106 0 1 1
13.9 12.6 -0.2 102 0 1 1
13.9 13.1 -0.2 107 0 1 1
14 -1.5 3 132 0 1 5
14 -0.9 3 114 0 1 5
14 1.1 2.5 150 0 1 5
14 1.6 2.3 125 0 1 5
14 7 0.1 117 0 1 1
14 7.5 0.1 118 0 1 1
14 8 0 106 0 1 1
14 8.5 0 111 0 1 1
14 9 -0.1 111 0 1 1
14 14.2 -0.2 78 0 1 1
14.1 -0.4 2.9 117 0 1 5
14.1 0.2 2.8 120 0 1 5
14.1 2.2 2.1 135 0 1 5
14.1 6.5 0.1 120 0 1 1
14.1 14.1 -0.2 91 0 1 1
14.2 0.8 2.6 136 0 1 5
14.2 1.3 2.4 133 0 1 5
14.3 -0.7 2.9 163 0 1 5
14.3 -0.1 2.9 171 0 1 5
14.3 1.9 2.2 94 0 1 5
14.4 0.5 2.7 102 0 1 5
14.4 1 2.5 132 0 1 5
14.4 10.5 -0.2 104 0 1 1
14.4 11 -0.2 107 0 1 1
14.4 11.5 -0.2 95 0 1 1
14.4 12 -0.2 108 0 1 1
14.4 12.6 -0.2 108 0 1 1
14.4 13.1 -0.2 110 0 1 1
14.4 13.7 -0.2 106 0 1 1
14.5 0.2 2.8 176 0 1 5
14.5 1.6 2.4 132 0 1 5
14.5 8.5 0 115 0 1 1
14.5 9 -0.1 108 0 1 1
14.5 9.5 -0.1 107 0 1 1
14.5 10 -0.1 110 0 1 1
14.6 0.7 2.6 156 0 1 5
14.6 1.3 2.5 145 0 1 5
14.6 7 0.1 118 0 1 1
14.6 7.5 0.1 118 0 1 1
14.6 8 0 115 0 1 1
14.9 11.5 -0.2 94 0 1 1
14.9 12 -0.2 104 0 1 1
14.9 12.6 -0.2 106 0 1 1
14.9 13.1 -0.2 80 0 1 1
15 9.5 -0.1 109 0 1 1
15 10 -0.1 110 0 1 1
15 10.5 -0.2 111 0 1 1
15 11 -0.2 105 0 1 1
15.1 7.5 0 111 0 1 1
15.1 8 0 121 0 1 1
15.1 8.5 0 117 0 1 1
15.1 9 -0.1 106 0 1 1
15.2 7 0.1 117 0 1 1
15.3 12.6 -0.2 92 0 1 1
15.5 10.5 -0.2 111 0 1 1
15.5 11 -0.2 102 0 1 1
15.5 11.5 -0.2 96 0 1 1
15.5 12 -0.2 102 0 1 1
15.5 12.4 -0.2 93 0 1 1
15.6 8.5 0 115 0 1 1
15.6 9 -0.1 106 0 1 1
15.6 9.5 -0.1 113 0 1 1
15.6 10 -0.1 109 0 1 1
15.7 7 0.1 119 0 1 1
15.7 7.5 0 105 0 1 1
15.7 8 0 122 0 1 1
15.8 12 -0.2 95 0 1 1
16 11.5 -0.2 96 0 1 1
16 11.7 -0.2 77 0 1 1
16.1 9.5 -0.1 111 0 1 1
16.1 10 -0.1 109 0 1 1
16.1 10.5 -0.1 114 0 1 1
16.1 11 -0.2 109 0 1 1
16.2 8 0 121 0 1 1
16.2 8.5 0 117 0 1 1
16.2 9 -0.1 97 0 1 1
16.2 11.5 -0.2 80 0 1 1
16.3 7.5 0 112 0 1 1
16.6 10.5 -0.1 118 0 1 1
16.6 11 -0.2 81 0 1 1
16.6 11.1 -0.2 80 0 1 1
16.7 9 -0.1 98 0 1 1
16.7 9.5 -0.1 114 0 1 1
16.7 10 -0.1 115 0 1 1
16.8 7.5 0 112 0 1 1
16.8 8 0 125 0 1 1
16.8 8.5 0 120 0 1 1
16.9 10.5 -0.1 85 0 1 1
17.1 10 -0.1 81 0 1 1
17.2 9.5 -0.1 107 0 1 1
17.2 9.9 -0.1 92 0 1 1
17.3 8 0 122 0 1 1
17.3 8.5 0 120 0 1 1
17.3 9 -0.1 96 0 1 1
17.4 9.5 -0.1 108 0 1 1
17.7 9 -0.1 86 0 1 1
17.8 8.7 0 115 0 1 1
17.9 8.1 0 120 0 1 1
17.9 8.5 0 114 0 1 1
18.2 8.1 0 88 0 1 1
