-8.8 -17.9 0.2 72 0 1 1
-8.8 -17.6 0.2 83 0 1 1
-8.5 -18.1 0.2 75 0 1 1
-8.3 -18.2 0.2 80 0 1 1
-8.3 -18.1 0.2 75 0 1 1
-8.3 -17.6 0.2 74 0 1 1
-8.3 -17.1 0.2 85 0 1 1
-8.3 -16.5 0.2 94 0 1 1
-7.7 -16.5 0.2 93 0 1 1
-7.7 -16 0.2 95 0 1 1
-7.7 -15.5 0.2 80 0 1 1
-7.2 -14.9 0.2 76 0 1 1
-7.2 -14.4 0.3 89 0 1 1
-5.8 -11.4 0.5 88 0 1 5
-5.5 -11.2 0.6 95 0 1 5
-5.5 -10.8 0.5 63 0 1 5
-5.3 -11.4 0.8 85 0 1 5
-5.3 -11 0.7 72 0 1 5
-5.3 -10.6 0.6 76 0 1 5
-5.3 -10.2 0.4 80 0 1 5
-5 -11.6 0.9 67 0 1 5
-5 -11.2 0.9 82 0 1 5
-5 -10.8 0.8 77 0 1 5
-5 -10.4 0.7 73 0 1 5
-5 -10 0.5 77 0 1 5
-4.7 -14.1 1.5 57 0 1 5
-4.7 -11.4 1.1 68 0 1 5
-4.7 -11 1 67 0 1 5
-4.7 -10.6 0.9 70 0 1 5
-4.7 -10.2 0.7 75 0 1 5
-4.7 -9.8 0.5 78 0 1 5
-4.7 -9.5 0.2 81 0 1 5
-4.5 -14.3 1.7 61 0 1 5
-4.5 -13.9 1.6 61 0 1 5
-4.5 -11.6 1.2 66 0 1 5
-4.5 -11.2 1.2 69 0 1 5
-4.5 -10.8 1.1 78 0 1 5
-4.5 -10.4 1 73 0 1 5
-4.5 -10 0.7 69 0 1 5
-4.5 -9.6 0.5 72 0 1 5
-4.5 -9.3 0.2 69 0 1 5
-4.5 -8.7 0.1 59 0 1 1
-4.2 -14.1 1.9 61 0 1 5
-4.2 -13.7 1.8 59 0 1 5
-4.2 -13.3 1.6 64 0 1 5
-4.2 -11.4 1.4 66 0 1 5
-4.2 -11 1.3 69 0 1 5
-4.2 -10.6 1.2 64 0 1 5
-4.2 -10.2 1 62 0 1 5
-4.2 -9.8 0.7 64 0 1 5
-4.2 -9.5 0.4 77 0 1 5
-4.2 -9.1 0.1 64 0 1 5
-3.9 -14.3 2.1 52 0 1 5
-3.9 -13.9 2 59 0 1 5
-3.9 -13.5 1.9 57 0 1 5
-3.9 -13.1 1.7 62 0 1 5
-3.9 -11.6 1.5 64 0 1 5
-3.9 -11.2 1.5 66 0 1 5
-3.9 -10.8 1.4 70 0 1 5
-3.9 -10.4 1.3 70 0 1 5
-3.9 -10 1 66 0 1 5
-3.9 -9.6 0.7 66 0 1 5
-3.9 -9.3 0.4 72 0 1 5
-3.9 -8.7 0.1 69 0 1 1
-3.9 -8.1 0 76 0 1 1
-3.9 -7.5 0 83 0 1 1
-3.6 -14.5 2.3 60 0 1 5
-3.6 -14.1 2.2 58 0 1 5
-3.6 -13.7 2.1 59 0 1 5
-3.6 -13.3 2 59 0 1 5
-3.6 -11.4 1.6 63 0 1 5
-3.6 -11 1.6 62 0 1 5
-3.6 -10.6 1.5 65 0 1 5
-3.6 -10.2 1.3 68 0 1 5
-3.6 -9.8 1 73 0 1 5
-3.6 -9.5 0.6 68 0 1 5
-3.6 -9.1 0.2 89 0 1 5
-3.4 -14.3 2.4 67 0 1 5
-3.4 -13.9 2.4 63 0 1 5
-3.4 -13.5 2.2 52 0 1 5
-3.4 -13.1 2.1 56 0 1 5
-3.4 -11.6 1.8 68 0 1 5
-3.4 -11.2 1.8 71 0 1 5
-3.4 -10.8 1.7 75 0 1 5
-3.4 -10.4 1.5 74 0 1 5
-3.4 -10 1.2 73 0 1 5
-3.4 -9.6 0.9 74 0 1 5
-3.4 -9.3 0.5 78 0 1 5
-3.4 -8.9 0.1 92 0 1 5
-3.4 -8.7 0 95 0 1 1
-3.4 -8.1 0 81 0 1 1
-3.4 -7.6 0 89 0 1 1
-3.4 -7 -0.1 77 0 1 1
-3.4 -6.5 -0.1 95 0 1 1
-3.1 -14.5 2.6 57 0 1 5
-3.1 -14.1 2.6 66 0 1 5
-3.1 -13.7 2.5 53 0 1 5
-3.1 -13.3 2.3 52 0 1 5
-3.1 -12.9 2.1 58 0 1 5
-3.1 -11.4 1.9 66 0 1 5
-3.1 -11 1.8 70 0 1 5
-3.1 -10.6 1.7 78 0 1 5
-3.1 -10.2 1.5 83 0 1 5
-3.1 -9.8 1.2 84 0 1 5
-3.1 -9.5 0.8 82 0 1 5
-3.1 -9.1 0.4 85 0 1 5
-2.9 -8.2 0 96 0 1 1
-2.9 -7.6 -0.1 82 0 1 1
-2.9 -7.1 -0.1 92 0 1 1
-2.9 -6.5 -0.1 85 0 1 1
-2.9 -5.9 -0.2 91 0 1 1
-2.8 -14.3 2.7 62 0 1 5
-2.8 -13.9 2.7 62 0 1 5
-2.8 -13.5 2.5 64 0 1 5
-2.8 -13.1 2.4 59 0 1 5
-2.8 -12.8 2.2 63 0 1 5
-2.8 -12.4 2.1 76 0 1 5
-2.8 -11.6 2 73 0 1 5
-2.8 -11.2 2 74 0 1 5
-2.8 -10.8 1.9 78 0 1 5
-2.8 -10.4 1.7 83 0 1 5
-2.8 -10 1.4 73 0 1 5
-2.8 -9.6 1 74 0 1 5
-2.8 -9.3 0.6 82 0 1 5
-2.8 -8.9 0.2 75 0 1 5
-2.6 -14.1 2.8 72 0 1 5
-2.6 -13.7 2.7 69 0 1 5
-2.6 -13.3 2.6 65 0 1 5
-2.6 -12.9 2.4 58 0 1 5
-2.6 -12.6 2.3 69 0 1 5
-2.6 -12.2 2.2 71 0 1 5
-2.6 -11.8 2.2 72 0 1 5
-2.6 -11.4 2.1 69 0 1 5
-2.6 -11 2 76 0 1 5
-2.6 -10.6 1.9 83 0 1 5
-2.6 -10.2 1.6 84 0 1 5
-2.6 -9.8 1.3 88 0 1 5
-2.6 -9.5 0.9 90 0 1 5
-2.6 -9.1 0.4 93 0 1 5
-2.6 -8.7 0 94 0 1 5
-2.4 -8.2 -0.1 109 0 1 1
-2.4 -7.7 -0.1 79 0 1 1
-2.4 -7.1 -0.2 99 0 1 1
-2.4 -6.5 -0.2 94 0 1 1
-2.4 -6 -0.2 94 0 1 1
-2.4 -5.4 -0.3 78 0 1 1
-2.4 -4.9 -0.3 96 0 1 1
-2.3 -14.3 3 71 0 1 5
-2.3 -13.9 2.9 77 0 1 5
-2.3 -13.5 2.8 77 0 1 5
-2.3 -13.1 2.6 86 0 1 5
-2.3 -12.8 2.5 71 0 1 5
-2.3 -12.4 2.3 75 0 1 5
-2.3 -12 2.3 78 0 1 5
-2.3 -11.6 2.2 80 0 1 5
-2.3 -11.2 2.2 81 0 1 5
-2.3 -10.8 2 88 0 1 5
-2.3 -10.4 1.8 90 0 1 5
-2.3 -10 1.5 82 0 1 5
-2.3 -9.6 1.1 87 0 1 5
-2.3 -9.3 0.7 90 0 1 5
-2.3 -8.9 0.2 93 0 1 5
-2 -14.5 3 71 0 1 5
-2 -14.1 3 69 0 1 5
-2 -13.7 2.9 84 0 1 5
-2 -13.3 2.8 70 0 1 5
-2 -12.9 2.6 60 0 1 5
-2 -12.6 2.5 72 0 1 5
-2 -12.2 2.4 70 0 1 5
-2 -11.8 2.4 70 0 1 5
-2 -11.4 2.3 67 0 1 5
-2 -11 2.2 86 0 1 5
-2 -10.6 2 85 0 1 5
-2 -10.2 1.7 74 0 1 5
-2 -9.8 1.3 88 0 1 5
-2 -9.5 0.9 82 0 1 5
-2 -9.1 0.5 84 0 1 5
-2 -8.7 0.1 80 0 1 5
-1.9 -8.3 -0.1 56 0 1 1
-1.9 -7.7 -0.2 93 0 1 1
-1.9 -7.2 -0.2 97 0 1 1
-1.9 -6.6 -0.2 61 0 1 1
-1.9 -6 -0.3 83 0 1 1
-1.9 -5.5 -0.3 79 0 1 1
-1.9 -4.9 -0.3 99 0 1 1
-1.9 -4.4 -0.4 97 0 1 1
-1.7 -14.3 3.1 72 0 1 5
-1.7 -13.9 3 72 0 1 5
-1.7 -13.5 2.9 73 0 1 5
-1.7 -13.1 2.7 83 0 1 5
-1.7 -12.8 2.6 89 0 1 5
-1.7 -12.4 2.5 79 0 1 5
-1.7 -12 2.5 83 0 1 5
-1.7 -11.6 2.4 86 0 1 5
-1.7 -11.2 2.3 95 0 1 5
-1.7 -10.8 2.1 81 0 1 5
-1.7 -10.4 1.8 96 0 1 5
-1.7 -10 1.5 72 0 1 5
-1.7 -9.6 1.1 88 0 1 5
-1.7 -9.3 0.7 80 0 1 5
-1.7 -8.9 0.3 88 0 1 5
-1.7 -8.5 -0.1 73 0 1 5
-1.5 -14.5 3.1 56 0 1 5
-1.5 -14.1 3.1 68 0 1 5
-1.5 -13.7 3 78 0 1 5
-1.5 -13.3 2.9 55 0 1 5
-1.5 -12.9 2.7 87 0 1 5
-1.5 -12.6 2.6 79 0 1 5
-1.5 -12.2 2.6 87 0 1 5
-1.5 -11.8 2.5 75 0 1 5
-1.5 -11.4 2.4 71 0 1 5
-1.5 -11 2.2 79 0 1 5
-1.5 -10.6 2 96 0 1 5
-1.5 -10.2 1.7 79 0 1 5
-1.5 -9.8 1.3 99 0 1 5
-1.5 -9.5 0.9 95 0 1 5
-1.5 -9.1 0.5 58 0 1 5
-1.5 -8.7 0.1 79 0 1 5
-1.4 -8.3 -0.2 89 0 1 1
-1.4 -7.7 -0.2 84 0 1 1
-1.4 -7.2 -0.2 72 0 1 1
-1.4 -6.6 -0.3 82 0 1 1
-1.4 -6.1 -0.3 107 0 1 1
-1.4 -5.5 -0.3 86 0 1 1
-1.4 -5 -0.4 97 0 1 1
-1.4 -4.4 -0.4 89 0 1 1
-1.2 -14.3 3.1 73 0 1 5
-1.2 -13.9 3.1 83 0 1 5
-1.2 -13.5 2.9 77 0 1 5
-1.2 -13.1 2.8 87 0 1 5
-1.2 -12.8 2.7 97 0 1 5
-1.2 -12.4 2.6 89 0 1 5
-1.2 -12 2.5 85 0 1 5
-1.2 -11.6 2.4 79 0 1 5
-1.2 -11.2 2.3 104 0 1 5
-1.2 -10.8 2.1 65 0 1 5
-1.2 -10.4 1.8 100 0 1 5
-1.2 -10 1.5 92 0 1 5
-1.2 -9.6 1.1 87 0 1 5
-1.2 -9.3 0.7 95 0 1 5
-1.2 -8.9 0.3 83 0 1 5
-1.2 -8.5 -0.1 79 0 1 5
-0.9 -14.5 3.1 84 0 1 5
-0.9 -14.1 3.1 87 0 1 5
-0.9 -13.7 3 97 0 1 5
-0.9 -13.3 2.9 79 0 1 5
-0.9 -12.9 2.8 85 0 1 5
-0.9 -12.6 2.7 98 0 1 5
-0.9 -12.2 2.6 92 0 1 5
-0.9 -11.8 2.5 95 0 1 5
-0.9 -11.4 2.4 77 0 1 5
-0.9 -11 2.2 97 0 1 5
-0.9 -10.6 1.9 96 0 1 5
-0.9 -10.2 1.6 98 0 1 5
-0.9 -9.8 1.2 102 0 1 5
-0.9 -9.5 0.9 91 0 1 5
-0.9 -9.1 0.5 85 0 1 5
-0.9 -8.7 0.1 94 0 1 5
-0.9 -7.2 -0.3 98 0 1 1
-0.9 -6.7 -0.3 77 0 1 1
-0.9 -6.1 -0.3 82 0 1 1
-0.9 -5.6 -0.4 98 0 1 1
-0.9 -5.1 -0.4 99 0 1 1
-0.9 -4.5 -0.4 96 0 1 1
-0.8 -8.3 -0.2 96 0 1 1
-0.8 -7.8 -0.2 102 0 1 1
-0.7 -14.3 3.1 82 0 1 5
-0.7 -13.9 3 95 0 1 5
-0.7 -13.5 2.9 97 0 1 5
-0.7 -13.1 2.8 92 0 1 5
-0.7 -12.8 2.7 90 0 1 5
-0.7 -12.4 2.6 88 0 1 5
-0.7 -12 2.5 99 0 1 5
-0.7 -11.6 2.4 101 0 1 5
-0.7 -11.2 2.2 97 0 1 5
-0.7 -10.8 2 82 0 1 5
-0.7 -10.4 1.7 90 0 1 5
-0.7 -10 1.4 96 0 1 5
-0.7 -9.6 1 75 0 1 5
-0.7 -9.3 0.7 85 0 1 5
-0.7 -8.9 0.3 90 0 1 5
-0.7 -8.5 -0.1 86 0 1 5
-0.4 -14.5 3.1 96 0 1 5
-0.4 -14.1 3 97 0 1 5
-0.4 -13.7 3 98 0 1 5
-0.4 -13.3 2.9 100 0 1 5
-0.4 -12.9 2.8 99 0 1 5
-0.4 -12.6 2.7 98 0 1 5
-0.4 -12.2 2.6 84 0 1 5
-0.4 -11.8 2.5 87 0 1 5
-0.4 -11.4 2.3 100 0 1 5
-0.4 -11 2.1 90 0 1 5
-0.4 -10.6 1.8 95 0 1 5
-0.4 -10.2 1.5 101 0 1 5
-0.4 -9.8 1.2 98 0 1 5
-0.4 -9.5 0.8 91 0 1 5
-0.4 -9.1 0.5 86 0 1 5
-0.4 -8.7 0.1 88 0 1 5
-0.4 -8.3 -0.2 86 0 1 5
-0.4 -6.2 -0.4 90 0 1 1
-0.4 -5.7 -0.4 81 0 1 1
-0.4 -5.1 -0.4 97 0 1 1
-0.4 -4.6 -0.5 98 0 1 1
-0.4 -4 -0.5 86 0 1 1
-0.3 -7.8 -0.3 107 0 1 1
-0.3 -7.3 -0.3 102 0 1 1
-0.3 -6.7 -0.3 99 0 1 1
-0.1 -14.3 3 80 0 1 5
-0.1 -13.9 3 92 0 1 5
-0.1 -13.5 2.9 98 0 1 5
-0.1 -13.1 2.8 94 0 1 5
-0.1 -12.8 2.7 93 0 1 5
-0.1 -12.4 2.6 90 0 1 5
-0.1 -12 2.5 92 0 1 5
-0.1 -11.6 2.4 90 0 1 5
-0.1 -11.2 2.2 88 0 1 5
-0.1 -10.8 1.9 98 0 1 5
-0.1 -10.4 1.6 97 0 1 5
-0.1 -10 1.3 94 0 1 5
-0.1 -9.6 1 91 0 1 5
-0.1 -9.3 0.6 70 0 1 5
-0.1 -8.9 0.3 83 0 1 5
-0.1 -8.5 -0.1 84 0 1 5
-0.1 -8.3 -0.2 87 0 1 5
0.1 -5.7 -0.4 88 0 1 1
0.1 -5.2 -0.5 90 0 1 1
0.1 -4.6 -0.5 91 0 1 1
0.1 -4.1 -0.5 97 0 1 1
0.2 -14.1 3 91 0 1 5
0.2 -13.7 2.9 88 0 1 5
0.2 -13.3 2.8 96 0 1 5
0.2 -12.9 2.7 98 0 1 5
0.2 -12.6 2.6 83 0 1 5
0.2 -12.2 2.5 96 0 1 5
0.2 -11.8 2.4 100 0 1 5
0.2 -11.4 2.2 91 0 1 5
0.2 -11 2 96 0 1 5
0.2 -10.6 1.7 89 0 1 5
0.2 -10.2 1.4 92 0 1 5
0.2 -9.8 1.1 101 0 1 5
0.2 -9.5 0.8 86 0 1 5
0.2 -9.1 0.5 94 0 1 5
0.2 -8.7 0.1 96 0 1 5
0.2 -8.3 -0.2 90 0 1 5
0.2 -7.9 -0.3 85 0 1 1
0.2 -7.3 -0.3 97 0 1 1
0.2 -6.8 -0.4 55 0 1 1
0.2 -6.2 -0.4 87 0 1 1
0.4 -14.3 3 82 0 1 5
0.4 -13.9 2.9 83 0 1 5
0.4 -13.5 2.8 84 0 1 5
0.4 -13.1 2.7 93 0 1 5
0.4 -12.8 2.6 96 0 1 5
0.4 -12.4 2.5 98 0 1 5
0.4 -12 2.4 89 0 1 5
0.4 -11.6 2.3 86 0 1 5
0.4 -11.2 2.1 88 0 1 5
0.4 -10.8 1.8 106 0 1 5
0.4 -10.4 1.5 94 0 1 5
0.4 -10 1.3 95 0 1 5
0.4 -9.6 1 94 0 1 5
0.4 -9.3 0.6 86 0 1 5
0.4 -8.9 0.3 86 0 1 5
0.4 -8.5 -0.1 70 0 1 5
0.4 -8.3 -0.3 79 0 1 5
0.6 -8.2 -0.3 94 0 1 5
0.6 -5.2 -0.5 92 0 1 1
0.6 -4.7 -0.5 99 0 1 1
0.6 -4.2 -0.6 102 0 1 1
0.7 -14.5 3 90 0 1 5
0.7 -14.1 2.9 100 0 1 5
0.7 -13.7 2.8 97 0 1 5
0.7 -13.3 2.7 100 0 1 5
0.7 -12.9 2.6 103 0 1 5
0.7 -12.6 2.5 102 0 1 5
0.7 -12.2 2.4 96 0 1 5
0.7 -11.8 2.3 97 0 1 5
0.7 -11.4 2.1 113 0 1 5
0.7 -11 1.9 101 0 1 5
0.7 -10.6 1.6 103 0 1 5
0.7 -10.2 1.4 97 0 1 5
0.7 -9.8 1.1 89 0 1 5
0.7 -9.5 0.8 76 0 1 5
0.7 -9.1 0.4 86 0 1 5
0.7 -8.7 0.1 69 0 1 5
0.7 -8.3 -0.3 58 0 1 5
0.7 -7.9 -0.3 89 0 1 1
0.7 -7.4 -0.4 110 0 1 1
0.7 -6.8 -0.4 92 0 1 1
0.7 -6.3 -0.4 95 0 1 1
0.7 -5.8 -0.5 97 0 1 1
0.8 -8.2 -0.3 92 0 1 5
1 -14.7 2.9 103 0 1 5
1 -14.3 2.9 97 0 1 5
1 -13.9 2.8 100 0 1 5
1 -13.5 2.7 103 0 1 5
1 -13.1 2.6 93 0 1 5
1 -12.8 2.5 97 0 1 5
1 -12.4 2.4 86 0 1 5
1 -12 2.3 82 0 1 5
1 -11.6 2.2 86 0 1 5
1 -11.2 2 108 0 1 5
1 -10.8 1.8 83 0 1 5
1 -10.4 1.5 67 0 1 5
1 -10 1.2 79 0 1 5
1 -9.6 0.9 85 0 1 5
1 -9.3 0.6 62 0 1 5
1 -8.9 0.3 82 0 1 5
1 -8.5 -0.1 92 0 1 5
1 -8.3 -0.3 85 0 1 5
1.1 -8.2 -0.3 92 0 1 5
1.1 -5.3 -0.5 94 0 1 1
1.1 -4.7 -0.6 114 0 1 1
1.1 -4.2 -0.6 90 0 1 1
1.1 -3.7 -0.6 88 0 1 1
1.2 -14.5 2.9 77 0 1 5
1.2 -14.1 2.8 91 0 1 5
1.2 -13.7 2.7 95 0 1 5
1.2 -13.3 2.6 97 0 1 5
1.2 -12.9 2.5 94 0 1 5
1.2 -12.6 2.4 83 0 1 5
1.2 -12.2 2.3 80 0 1 5
1.2 -11.8 2.2 60 0 1 5
1.2 -11.4 2.1 82 0 1 5
1.2 -11 1.9 65 0 1 5
1.2 -10.6 1.6 84 0 1 5
1.2 -10.2 1.4 83 0 1 5
1.2 -9.8 1.1 69 0 1 5
1.2 -9.5 0.8 91 0 1 5
1.2 -9.1 0.4 88 0 1 5
1.2 -8.7 0.1 72 0 1 5
1.2 -8.3 -0.3 92 0 1 5
1.2 -7.9 -0.4 91 0 1 1
1.2 -7.4 -0.4 79 0 1 1
1.2 -6.9 -0.4 92 0 1 1
1.2 -6.3 -0.5 93 0 1 1
1.2 -5.8 -0.5 102 0 1 1
1.4 -8.2 -0.3 73 0 1 5
1.5 -14.7 2.8 95 0 1 5
1.5 -14.3 2.8 84 0 1 5
1.5 -13.9 2.7 91 0 1 5
1.5 -13.5 2.6 86 0 1 5
1.5 -13.1 2.5 83 0 1 5
1.5 -12.8 2.4 68 0 1 5
1.5 -12.4 2.4 106 0 1 5
1.5 -12 2.3 67 0 1 5
1.5 -11.6 2.1 78 0 1 5
1.5 -11.2 2 85 0 1 5
1.5 -10.8 1.8 87 0 1 5
1.5 -10.4 1.5 97 0 1 5
1.5 -10 1.3 77 0 1 5
1.5 -9.6 1 95 0 1 5
1.5 -9.3 0.6 84 0 1 5
1.5 -8.9 0.2 94 0 1 5
1.5 -8.5 -0.1 99 0 1 5
1.5 -8.3 -0.3 98 0 1 5
1.6 -8.2 -0.3 91 0 1 5
1.6 -5.3 -0.6 101 0 1 1
1.6 -4.8 -0.6 64 0 1 1
1.6 -4.3 -0.6 94 0 1 1
1.6 -3.7 -0.6 84 0 1 1
1.7 -8 -0.4 100 0 1 1
1.7 -7.5 -0.5 90 0 1 1
1.7 -6.9 -0.5 88 0 1 1
1.7 -6.4 -0.5 104 0 1 1
1.7 -5.9 -0.5 98 0 1 1
1.8 -14.5 2.7 81 0 1 5
1.8 -14.1 2.7 90 0 1 5
1.8 -13.7 2.6 71 0 1 5
1.8 -13.3 2.5 80 0 1 5
1.8 -12.9 2.4 80 0 1 5
1.8 -12.6 2.4 102 0 1 5
1.8 -12.2 2.3 56 0 1 5
1.8 -11.8 2.2 94 0 1 5
1.8 -11.4 2 92 0 1 5
1.8 -11 1.9 96 0 1 5
1.8 -10.6 1.7 100 0 1 5
1.8 -10.2 1.4 90 0 1 5
1.8 -9.8 1.1 71 0 1 5
1.8 -9.5 0.8 90 0 1 5
1.8 -9.1 0.4 99 0 1 5
1.8 -8.7 0.1 99 0 1 5
1.8 -8.5 -0.1 101 0 1 5
1.8 -8.3 -0.3 94 0 1 5
1.9 -8.4 -0.2 95 0 1 5
1.9 -8.3 -0.3 84 0 1 5
1.9 -8.2 -0.3 100 0 1 5
2 -14.7 2.7 81 0 1 5
2 -14.3 2.6 75 0 1 5
2 -13.9 2.5 79 0 1 5
2 -13.5 2.5 86 0 1 5
2 -13.1 2.4 93 0 1 5
2 -12.8 2.3 109 0 1 5
2 -12.4 2.3 102 0 1 5
2 -12 2.2 106 0 1 5
2 -11.6 2.1 104 0 1 5
2 -11.2 1.9 87 0 1 5
2 -10.8 1.8 56 0 1 5
2 -10.4 1.6 96 0 1 5
2 -10 1.3 76 0 1 5
2 -9.6 1 91 0 1 5
2 -9.3 0.6 84 0 1 5
2 -8.9 0.2 99 0 1 5
2 -8.5 -0.1 101 0 1 5
2 -8.3 -0.3 73 0 1 5
2.1 -4.9 -0.6 88 0 1 1
2.1 -4.3 -0.7 98 0 1 1
2.1 -3.8 -0.6 97 0 1 1
2.2 -8 -0.5 86 0 1 1
2.2 -7.5 -0.5 75 0 1 1
2.2 -7 -0.5 98 0 1 1
2.2 -6.4 -0.5 92 0 1 1
2.2 -5.9 -0.6 95 0 1 1
2.2 -5.4 -0.6 88 0 1 1
2.3 -14.5 2.6 86 0 1 5
2.3 -14.1 2.5 89 0 1 5
2.3 -13.7 2.4 85 0 1 5
2.3 -13.3 2.4 106 0 1 5
2.3 -12.9 2.3 105 0 1 5
2.3 -12.6 2.3 89 0 1 5
2.3 -12.2 2.2 101 0 1 5
2.3 -11.8 2.1 96 0 1 5
2.3 -11.4 2 90 0 1 5
2.3 -11 1.9 104 0 1 5
2.3 -10.6 1.7 90 0 1 5
2.3 -10.2 1.4 81 0 1 5
2.3 -9.8 1.1 105 0 1 5
2.3 -9.5 0.8 96 0 1 5
2.3 -9.1 0.4 103 0 1 5
2.3 -8.7 0 102 0 1 5
2.3 -8.6 -0.4 100 0 1 1
2.3 -8.3 -0.3 91 0 1 5
2.6 -14.3 2.4 88 0 1 5
2.6 -13.9 2.4 104 0 1 5
2.6 -13.5 2.3 96 0 1 5
2.6 -13.1 2.3 103 0 1 5
2.6 -12.8 2.2 101 0 1 5
2.6 -12.4 2.2 106 0 1 5
2.6 -12 2.1 104 0 1 5
2.6 -11.6 2.1 105 0 1 5
2.6 -11.2 1.9 92 0 1 5
2.6 -10.8 1.8 101 0 1 5
2.6 -10.4 1.6 110 0 1 5
2.6 -10 1.3 99 0 1 5
2.6 -9.6 1 84 0 1 5
2.6 -9.3 0.6 89 0 1 5
2.6 -8.9 0.2 102 0 1 5
2.6 -8.5 -0.2 83 0 1 5
2.6 -4.9 -0.7 93 0 1 1
2.6 -4.4 -0.7 106 0 1 1
2.6 -3.8 -0.7 98 0 1 1
2.6 -3.3 -0.6 88 0 1 1
2.7 -7.5 -0.5 91 0 1 1
2.7 -7 -0.6 90 0 1 1
2.7 -6.5 -0.6 113 0 1 1
2.7 -6 -0.6 95 0 1 1
2.7 -5.5 -0.6 103 0 1 1
2.8 -8.6 -0.5 86 0 1 1
2.8 -8.1 -0.5 89 0 1 1
2.9 -14.5 2.4 97 0 1 5
2.9 -14.1 2.3 100 0 1 5
2.9 -13.7 2.3 88 0 1 5
2.9 -13.3 2.2 94 0 1 5
2.9 -12.9 2.2 100 0 1 5
2.9 -12.6 2.2 101 0 1 5
2.9 -12.2 2.1 99 0 1 5
2.9 -11.8 2.1 72 0 1 5
2.9 -11.4 2 110 0 1 5
2.9 -11 1.8 74 0 1 5
2.9 -10.6 1.7 91 0 1 5
2.9 -10.2 1.4 120 0 1 5
2.9 -9.8 1.1 103 0 1 5
2.9 -9.5 0.8 120 0 1 5
2.9 -9.1 0.4 92 0 1 5
2.9 -8.7 0 102 0 1 5
2.9 -8.3 -0.3 68 0 1 5
3.1 -14.3 2.3 82 0 1 5
3.1 -13.9 2.2 78 0 1 5
3.1 -13.5 2.2 98 0 1 5
3.1 -13.1 2.1 100 0 1 5
3.1 -12.8 2.1 83 0 1 5
3.1 -12.4 2.1 87 0 1 5
3.1 -12 2 85 0 1 5
3.1 -11.6 2 97 0 1 5
3.1 -11.2 1.9 86 0 1 5
3.1 -10.8 1.7 107 0 1 5
3.1 -10.4 1.5 99 0 1 5
3.1 -10 1.3 95 0 1 5
3.1 -9.6 0.9 103 0 1 5
3.1 -9.3 0.6 106 0 1 5
3.1 -8.9 0.2 101 0 1 5
3.1 -8.5 -0.2 105 0 1 5
3.1 -8.3 -0.3 97 0 1 5
3.1 -5 -0.7 97 0 1 1
3.1 -4.5 -0.7 86 0 1 1
3.1 -3.9 -0.7 106 0 1 1
3.1 -3.3 -0.6 97 0 1 1
3.2 -7.6 -0.6 95 0 1 1
3.2 -7.1 -0.6 97 0 1 1
3.2 -6.5 -0.6 62 0 1 1
3.2 -6 -0.7 69 0 1 1
3.2 -5.5 -0.7 96 0 1 1
3.3 -8.6 -0.5 72 0 1 1
3.3 -8.4 -0.3 95 0 1 5
3.3 -8.3 -0.3 79 0 1 5
3.3 -8.1 -0.5 107 0 1 1
3.4 -14.1 2.1 88 0 1 5
3.4 -13.7 2.1 93 0 1 5
3.4 -12.6 2 103 0 1 5
3.4 -12.2 2 84 0 1 5
3.4 -11.8 2 88 0 1 5
3.4 -11.4 1.9 107 0 1 5
3.4 -11 1.7 105 0 1 5
3.4 -10.6 1.6 112 0 1 5
3.4 -10.2 1.4 98 0 1 5
3.4 -9.8 1.1 94 0 1 5
3.4 -9.5 0.7 100 0 1 5
3.4 -9.1 0.3 106 0 1 5
3.4 -8.7 -0.1 93 0 1 5
3.4 -8.5 -0.2 83 0 1 5
3.5 -8.4 -0.3 96 0 1 5
3.6 -5.1 -0.7 78 0 1 1
3.6 -4.5 -0.8 93 0 1 1
3.6 -4 -0.7 99 0 1 1
3.6 -3.4 -0.7 95 0 1 1
3.7 -12.4 1.9 104 0 1 5
3.7 -12 1.9 94 0 1 5
3.7 -11.6 1.8 98 0 1 5
3.7 -11.2 1.7 103 0 1 5
3.7 -10.8 1.6 105 0 1 5
3.7 -10.4 1.4 112 0 1 5
3.7 -10 1.2 105 0 1 5
3.7 -9.6 0.8 117 0 1 5
3.7 -9.3 0.5 107 0 1 5
3.7 -8.9 0.1 117 0 1 5
3.7 -8.5 -0.2 107 0 1 5
3.7 -7.1 -0.6 90 0 1 1
3.7 -6.6 -0.7 81 0 1 1
3.7 -6.1 -0.7 88 0 1 1
3.7 -5.6 -0.7 82 0 1 1
3.7 -2.8 -0.6 99 0 1 1
3.8 -8.7 -0.5 72 0 1 1
3.8 -8.4 -0.3 107 0 1 5
3.8 -8.1 -0.6 91 0 1 1
3.8 -7.6 -0.6 76 0 1 1
3.9 -12.2 1.8 105 0 1 5
3.9 -11.8 1.8 82 0 1 5
3.9 -11.4 1.7 108 0 1 5
3.9 -11 1.6 111 0 1 5
3.9 -10.6 1.4 111 0 1 5
3.9 -10.2 1.2 112 0 1 5
3.9 -9.8 0.9 106 0 1 5
3.9 -9.5 0.6 105 0 1 5
3.9 -9.1 0.2 131 0 1 5
3.9 -8.7 -0.1 105 0 1 5
3.9 -8.5 -0.3 109 0 1 5
3.9 -8.4 -0.3 98 0 1 5
4.1 -4.5 -0.7 85 0 1 1
4.2 -12 1.7 106 0 1 5
4.2 -11.6 1.6 91 0 1 5
4.2 -11.2 1.5 106 0 1 5
4.2 -10.8 1.4 112 0 1 5
4.2 -10.4 1.3 76 0 1 5
4.2 -10 1 90 0 1 5
4.2 -9.6 0.7 114 0 1 5
4.2 -9.3 0.4 116 0 1 5
4.2 -8.9 0 116 0 1 5
4.2 -8.7 -0.2 114 0 1 5
4.2 -8.5 -0.3 111 0 1 5
4.2 -6.6 -0.6 86 0 1 1
4.2 -6.1 -0.6 81 0 1 1
4.2 -5.5 -0.7 84 0 1 1
4.2 -5 -0.7 86 0 1 1
4.2 -3.9 -0.7 77 0 1 1
4.2 -3.4 -0.6 82 0 1 1
4.2 -2.8 -0.6 72 0 1 1
4.3 -8.1 -0.5 93 0 1 1
4.3 -7.6 -0.6 84 0 1 1
4.3 -7.1 -0.6 94 0 1 1
4.4 -9.1 -0.5 93 0 1 1
4.4 -8.6 -0.5 74 0 1 1
4.4 -8.6 -0.3 101 0 1 5
4.4 -8.5 -0.3 99 0 1 5
4.5 -11.8 1.5 102 0 1 5
4.5 -11.4 1.5 88 0 1 5
4.5 -11 1.4 107 0 1 5
4.5 -10.6 1.2 101 0 1 5
4.5 -10.2 1 89 0 1 5
4.5 -9.8 0.8 119 0 1 5
4.5 -9.5 0.4 122 0 1 5
4.5 -9.1 0.1 114 0 1 5
4.5 -8.7 -0.2 112 0 1 5
4.6 -8.6 -0.3 108 0 1 5
4.7 -6 -0.6 90 0 1 1
4.7 -5.5 -0.6 85 0 1 1
4.7 -5 -0.6 94 0 1 1
4.7 -4.5 -0.6 87 0 1 1
4.7 -3.9 -0.6 87 0 1 1
4.7 -3.4 -0.6 84 0 1 1
4.7 -2.8 -0.5 59 0 1 1
4.8 -11.6 1.3 85 0 1 5
4.8 -11.2 1.3 78 0 1 5
4.8 -10.8 1.2 118 0 1 5
4.8 -10.4 1 117 0 1 5
4.8 -10 0.8 124 0 1 5
4.8 -9.6 0.5 102 0 1 5
4.8 -9.3 0.2 109 0 1 5
4.8 -8.9 -0.1 112 0 1 5
4.8 -8.7 -0.3 121 0 1 5
4.8 -8.6 -0.3 70 0 1 5
4.8 -7.6 -0.5 86 0 1 1
4.8 -7 -0.5 106 0 1 1
4.8 -6.5 -0.5 96 0 1 1
4.9 -8.8 -0.2 132 0 1 5
4.9 -8.6 -0.5 99 0 1 1
4.9 -8.1 -0.5 63 0 1 1
5 -11.4 1.2 111 0 1 5
5 -11 1.1 96 0 1 5
5 -10.6 1 109 0 1 5
5 -10.2 0.8 119 0 1 5
5 -9.8 0.5 124 0 1 5
5 -9.5 0.2 104 0 1 5
5 -9.1 -0.1 121 0 1 5
5 -8.9 -0.2 120 0 1 5
5 -8.8 -0.3 119 0 1 5
5 -8.7 -0.3 56 0 1 5
5.2 -8.8 -0.3 95 0 1 5
5.2 -5.5 -0.5 80 0 1 1
5.2 -5 -0.6 89 0 1 1
5.2 -4.5 -0.6 85 0 1 1
5.2 -3.9 -0.5 84 0 1 1
5.2 -3.3 -0.5 81 0 1 1
5.2 -2.8 -0.5 108 0 1 1
5.3 -11.2 0.9 107 0 1 5
5.3 -10.8 0.8 107 0 1 5
5.3 -10.4 0.7 107 0 1 5
5.3 -10 0.5 109 0 1 5
5.3 -9.6 0.3 115 0 1 5
5.3 -9.3 0 103 0 1 5
5.3 -9.1 -0.2 122 0 1 5
5.3 -8.9 -0.3 111 0 1 5
5.3 -8.8 -0.3 75 0 1 5
5.3 -7 -0.5 67 0 1 1
5.3 -6.5 -0.5 77 0 1 1
5.3 -6 -0.5 89 0 1 1
5.4 -9 -0.3 115 0 1 5
5.4 -8.9 -0.3 85 0 1 5
5.4 -8.5 -0.4 72 0 1 1
5.4 -8 -0.4 79 0 1 1
5.4 -7.5 -0.5 84 0 1 1
5.5 -9.1 -0.4 80 0 1 1
5.6 -11 0.7 116 0 1 5
5.6 -10.6 0.6 117 0 1 5
5.6 -10.2 0.5 121 0 1 5
5.6 -9.8 0.3 130 0 1 5
5.6 -9.5 0 109 0 1 5
5.6 -9.3 -0.1 115 0 1 5
5.6 -9.1 -0.2 95 0 1 5
5.7 -9.2 -0.2 120 0 1 5
5.7 -9.1 -0.3 113 0 1 5
5.7 -9 -0.3 83 0 1 5
5.7 -4.9 -0.5 94 0 1 1
5.7 -4.4 -0.5 83 0 1 1
5.7 -3.9 -0.5 92 0 1 1
5.7 -3.3 -0.4 94 0 1 1
5.8 -11.2 0.6 120 0 1 5
5.8 -10.8 0.5 89 0 1 5
5.8 -10.4 0.4 113 0 1 5
5.8 -10 0.2 111 0 1 5
5.8 -9.6 0 110 0 1 5
5.8 -9.5 -0.1 109 0 1 5
5.8 -9.3 -0.2 112 0 1 5
5.8 -9.2 -0.3 119 0 1 5
5.8 -9.1 -0.3 73 0 1 5
5.8 -6.5 -0.4 96 0 1 1
5.8 -6 -0.5 87 0 1 1
5.8 -5.5 -0.5 82 0 1 1
5.9 -8 -0.4 92 0 1 1
5.9 -7.5 -0.4 79 0 1 1
5.9 -7 -0.4 76 0 1 1
6 -9.4 -0.2 120 0 1 5
6 -9.3 -0.3 107 0 1 5
6 -9.2 -0.3 84 0 1 5
6 -9 -0.3 96 0 1 1
6 -8.5 -0.4 83 0 1 1
6.1 -11 0.3 106 0 1 5
6.1 -10.6 0.3 105 0 1 5
6.1 -10.2 0.1 116 0 1 5
6.1 -9.8 0 111 0 1 5
6.1 -9.6 -0.1 118 0 1 5
6.1 -9.5 -0.2 123 0 1 5
6.1 -9.4 -0.3 126 0 1 5
6.1 -9.3 -0.3 80 0 1 5
6.2 -9.5 -0.3 107 0 1 5
6.2 -9.5 -0.2 113 0 1 5
6.2 -4.4 -0.5 95 0 1 1
6.2 -3.9 -0.4 104 0 1 1
6.3 -5.9 -0.4 83 0 1 1
6.3 -5.4 -0.4 83 0 1 1
6.3 -4.9 -0.4 76 0 1 1
6.3 -3.3 -0.4 83 0 1 1
6.4 -11.2 0.2 117 0 1 5
6.4 -10.8 0.1 97 0 1 5
6.4 -10.4 0 117 0 1 5
6.4 -10 -0.1 106 0 1 5
6.4 -9.8 -0.2 109 0 1 5
6.4 -9.6 -0.3 116 0 1 5
6.4 -7.5 -0.3 90 0 1 1
6.4 -6.9 -0.4 85 0 1 1
6.4 -6.4 -0.4 84 0 1 1
6.5 -9.9 -0.2 102 0 1 5
6.5 -9.7 -0.3 97 0 1 5
6.5 -8.5 -0.3 83 0 1 1
6.5 -8 -0.3 76 0 1 1
6.6 -10 -0.3 88 0 1 1
6.6 -9.5 -0.3 97 0 1 1
6.6 -9 -0.3 70 0 1 1
6.7 -11 0 112 0 1 5
6.7 -10.6 -0.1 114 0 1 5
6.7 -10.4 -0.1 117 0 1 5
6.7 -10.2 -0.2 115 0 1 5
6.7 -9.9 -0.3 88 0 1 5
6.7 -4.4 -0.4 97 0 1 1
6.8 -10.3 -0.2 105 0 1 5
6.8 -5.4 -0.4 97 0 1 1
6.8 -4.9 -0.4 93 0 1 1
6.8 -3.8 -0.4 85 0 1 1
6.9 -11.2 -0.2 117 0 1 5
6.9 -10.8 -0.2 112 0 1 5
6.9 -6.9 -0.3 78 0 1 1
6.9 -6.4 -0.3 82 0 1 1
6.9 -5.9 -0.3 81 0 1 1
7 -7.9 -0.3 93 0 1 1
7 -7.4 -0.3 75 0 1 1
7.1 -9.4 -0.2 107 0 1 1
7.1 -8.9 -0.2 100 0 1 1
7.1 -8.4 -0.3 69 0 1 1
7.2 -10.4 -0.2 99 0 1 1
7.2 -9.9 -0.2 102 0 1 1
7.3 -12.5 -0.1 107 0 1 1
7.3 -12 -0.2 100 0 1 1
7.3 -11.5 -0.2 101 0 1 1
7.3 -11 -0.2 102 0 1 1
7.3 -5.4 -0.3 97 0 1 1
7.3 -4.9 -0.3 73 0 1 5
7.3 -4.8 -0.3 65 0 1 5
7.3 -4.5 -0.3 76 0 1 5
7.3 -4.4 -0.3 99 0 1 1
7.3 -4.2 -0.3 67 0 1 5
7.4 -6.4 -0.3 82 0 1 1
7.4 -5.9 -0.3 96 0 1 1
7.4 -5.3 -0.3 98 0 1 5
7.4 -5.2 -0.3 73 0 1 5
7.4 -5.1 -0.3 54 0 1 5
7.4 -4.8 -0.2 60 0 1 5
7.4 -4.6 -0.3 46 0 1 5
7.4 -4.3 -0.2 55 0 1 5
7.4 -4.1 -0.2 45 0 1 5
7.4 -3.8 -0.2 46 0 1 5
7.5 -7.4 -0.2 112 0 1 1
7.5 -6.9 -0.3 113 0 1 1
7.5 -5.6 -0.3 99 0 1 5
7.5 -5.5 -0.3 69 0 1 5
7.5 -5.2 -0.2 60 0 1 5
7.5 -4.9 -0.2 58 0 1 5
7.6 -8.9 -0.2 75 0 1 1
7.6 -8.4 -0.2 80 0 1 1
7.6 -7.9 -0.2 88 0 1 1
7.6 -5.6 -0.2 55 0 1 5
7.6 -4.6 -0.1 38 0 1 5
7.6 -4.1 0 46 0 1 5
7.7 -9.9 -0.2 102 0 1 1
7.7 -9.4 -0.2 106 0 1 1
7.7 -6.1 -0.3 89 0 1 5
7.7 -5.8 -0.2 59 0 1 5
7.7 -5.5 -0.1 63 0 1 5
7.8 -14.1 0 66 0 1 1
7.8 -13.5 0 102 0 1 1
7.8 -13 -0.1 98 0 1 1
7.8 -10.9 -0.1 101 0 1 1
7.8 -10.4 -0.2 95 0 1 1
7.8 -6.4 -0.2 67 0 1 5
7.8 -6.2 -0.2 74 0 1 5
7.8 -4.9 0 56 0 1 5
7.8 -4.4 0.1 46 0 1 5
7.9 -12.4 -0.1 93 0 1 1
7.9 -11.9 -0.1 103 0 1 1
7.9 -11.4 -0.1 108 0 1 1
7.9 -6.1 -0.1 69 0 1 5
7.9 -5.8 -0.1 54 0 1 5
7.9 -5.2 0.1 54 0 1 5
8 -6.8 -0.2 85 0 1 1
8 -6.7 -0.2 67 0 1 5
8 -4.7 0.2 39 0 1 5
8 -4.1 0.4 43 0 1 5
8.1 -8.3 -0.2 77 0 1 1
8.1 -7.8 -0.2 82 0 1 1
8.1 -7.3 -0.2 68 0 1 1
8.1 -6.1 0 64 0 1 5
8.1 -5.5 0.2 49 0 1 5
8.2 -9.4 -0.1 97 0 1 1
8.2 -8.9 -0.2 70 0 1 1
8.2 -7 -0.2 76 0 1 5
8.2 -5 0.3 46 0 1 5
8.2 -4.4 0.5 45 0 1 5
8.3 -16.1 0.1 115 0 1 1
8.3 -15.6 0.1 101 0 1 1
8.3 -15.1 0.1 100 0 1 1
8.3 -14.5 0 75 0 1 1
8.3 -10.4 -0.1 95 0 1 1
8.3 -9.9 -0.1 90 0 1 1
8.3 -6.4 0 65 0 1 5
8.3 -5.8 0.2 56 0 1 5
8.4 -14 0 88 0 1 1
8.4 -13.5 0 90 0 1 1
8.4 -12.9 0 104 0 1 1
8.4 -12.4 -0.1 96 0 1 1
8.4 -11.4 -0.1 66 0 1 1
8.4 -10.9 -0.1 105 0 1 1
8.4 -5.3 0.4 50 0 1 5
8.4 -4.7 0.6 45 0 1 5
8.5 -11.9 -0.1 93 0 1 1
8.5 -6.7 0 69 0 1 5
8.5 -6.1 0.2 60 0 1 5
8.5 -5.6 0.5 55 0 1 5
8.6 -7.8 -0.1 65 0 1 1
8.6 -7.3 -0.1 73 0 1 1
8.6 -7 0 70 0 1 5
8.6 -5 0.7 46 0 1 5
8.6 -4.5 0.9 44 0 1 5
8.7 -17.9 0.2 96 0 1 1
8.7 -17.7 0.2 95 0 1 1
8.7 -8.8 -0.1 91 0 1 1
8.7 -8.3 -0.1 65 0 1 1
8.7 -6.4 0.2 68 0 1 5
8.7 -5.9 0.5 55 0 1 5
8.8 -17.2 0.2 87 0 1 1
8.8 -16.6 0.2 91 0 1 1
8.8 -16.1 0.1 90 0 1 1
8.8 -15.6 0.1 99 0 1 1
8.8 -9.8 -0.1 93 0 1 1
8.8 -9.3 -0.1 93 0 1 1
8.8 -7.3 0 79 0 1 5
8.8 -5.3 0.7 53 0 1 5
8.8 -4.8 1 50 0 1 5
8.9 -15 0.1 74 0 1 1
8.9 -14.5 0.1 94 0 1 1
8.9 -13.9 0 111 0 1 1
8.9 -13.4 0 101 0 1 1
8.9 -10.8 -0.1 93 0 1 1
8.9 -10.3 -0.1 103 0 1 1
8.9 -6.7 0.2 69 0 1 5
8.9 -6.2 0.5 63 0 1 5
9 -12.9 0 101 0 1 1
9 -12.3 0 101 0 1 1
9 -11.8 -0.1 101 0 1 1
9 -11.3 -0.1 66 0 1 1
9 -7.6 -0.1 75 0 1 5
9 -5.6 0.7 63 0 1 5
9 -5.1 1 58 0 1 5
9.1 -7 0.2 74 0 1 5
9.1 -6.5 0.4 69 0 1 5
9.2 -8.3 -0.1 72 0 1 1
9.2 -7.8 -0.1 93 0 1 1
9.2 -5.9 0.7 68 0 1 5
9.2 -5.4 1 59 0 1 5
9.3 -17.6 0.2 90 0 1 1
9.3 -17.1 0.2 90 0 1 1
9.3 -16.6 0.2 85 0 1 1
9.3 -9.3 -0.1 99 0 1 1
9.3 -8.8 -0.1 78 0 1 1
9.3 -7.3 0.1 82 0 1 5
9.3 -6.8 0.4 74 0 1 5
9.3 -6.2 0.7 71 0 1 5
9.3 -4.8 1.3 69 0 1 5
9.4 -16 0.2 99 0 1 1
9.4 -15.5 0.1 99 0 1 1
9.4 -15 0.1 93 0 1 1
9.4 -14.4 0.1 109 0 1 1
9.4 -10.3 0 92 0 1 1
9.4 -9.8 -0.1 84 0 1 1
9.4 -7.6 0 79 0 1 5
9.4 -5.7 1 72 0 1 5
9.4 -5.1 1.2 59 0 1 5
9.5 -13.9 0.1 96 0 1 1
9.5 -13.4 0.1 96 0 1 1
9.5 -12.8 0 100 0 1 1
9.5 -12.3 0 90 0 1 1
9.5 -11.3 0 78 0 1 1
9.5 -10.8 0 64 0 1 1
9.5 -7.1 0.3 77 0 1 5
9.5 -6.5 0.6 75 0 1 5
9.6 -11.8 0 101 0 1 1
9.6 -6 0.9 78 0 1 5
9.6 -5.4 1.2 78 0 1 5
9.7 -7.4 0.2 81 0 1 5
9.7 -6.8 0.5 78 0 1 5
9.8 -17.3 0.3 78 0 1 1
9.8 -17 0.3 72 0 1 1
9.8 -8.7 0 103 0 1 1
9.8 -8.2 0 73 0 1 1
9.8 -6.3 0.8 77 0 1 5
9.8 -5.7 1.1 82 0 1 5
9.9 -16.5 0.2 93 0 1 1
9.9 -16 0.2 98 0 1 1
9.9 -15.4 0.2 99 0 1 1
9.9 -9.7 0 91 0 1 1
9.9 -9.2 0 93 0 1 1
9.9 -7.7 0.1 80 0 1 5
9.9 -7.1 0.4 89 0 1 5
9.9 -5.1 1.4 72 0 1 5
10 -14.9 0.2 91 0 1 1
10 -14.4 0.1 111 0 1 1
10 -13.8 0.1 86 0 1 1
10 -13.3 0.1 101 0 1 1
10 -10.7 0 100 0 1 1
10 -10.2 0 97 0 1 1
10 -8 0 75 0 1 5
10 -6.6 0.7 79 0 1 5
10 -6 1 97 0 1 5
10 -5.4 1.3 78 0 1 5
10.1 -12.8 0.1 83 0 1 1
10.1 -12.2 0 100 0 1 1
10.1 -11.7 0 102 0 1 1
10.1 -11.2 0 91 0 1 1
10.1 -7.4 0.3 81 0 1 5
10.1 -6.9 0.6 96 0 1 5
10.2 -6.3 0.9 87 0 1 5
10.2 -5.7 1.2 76 0 1 5
10.3 -8.2 0 67 0 1 1
10.3 -7.7 0.2 80 0 1 5
10.3 -7.2 0.5 83 0 1 5
10.4 -17 0.3 73 0 1 1
10.4 -16.4 0.3 102 0 1 1
10.4 -15.9 0.2 99 0 1 1
10.4 -9.2 0 101 0 1 1
10.4 -8.7 0 87 0 1 1
10.4 -6.6 0.8 78 0 1 5
10.5 -15.4 0.2 103 0 1 1
10.5 -14.8 0.2 89 0 1 1
10.5 -14.3 0.2 83 0 1 1
10.5 -10.2 0 81 0 1 1
10.5 -9.7 0 104 0 1 1
10.6 -16.9 0.3 74 0 1 1
10.6 -13.8 0.1 104 0 1 1
10.6 -13.2 0.1 86 0 1 1
10.6 -12.7 0.1 103 0 1 1
10.6 -11.2 0 102 0 1 1
10.6 -10.7 0 85 0 1 1
10.6 -6.9 0.6 78 0 1 5
10.7 -12.2 0.1 101 0 1 1
10.7 -11.7 0 107 0 1 1
10.7 -7.2 0.5 76 0 1 5
10.9 -16.7 0.3 91 0 1 1
10.9 -8.6 0.1 93 0 1 1
11 -16.4 0.3 96 0 1 1
11 -15.8 0.3 92 0 1 1
11 -15.3 0.3 101 0 1 1
11 -9.6 0.1 104 0 1 1
11 -9.1 0.1 99 0 1 1
11.1 -16.7 0.3 73 0 1 1
11.1 -14.8 0.2 90 0 1 1
11.1 -14.3 0.2 76 0 1 1
11.1 -13.7 0.2 97 0 1 1
11.1 -10.6 0.1 97 0 1 1
11.1 -10.1 0.1 96 0 1 1
11.2 -13.2 0.2 101 0 1 1
11.2 -12.7 0.1 98 0 1 1
11.2 -12.1 0.1 104 0 1 1
11.2 -11.6 0.1 97 0 1 1
11.2 -11.1 0.1 98 0 1 1
11.5 -16.3 0.3 91 0 1 1
11.5 -15.8 0.3 102 0 1 1
11.5 -9.1 0.1 106 0 1 1
11.5 -8.6 0.1 96 0 1 1
11.6 -15.3 0.3 89 0 1 1
11.6 -14.7 0.3 102 0 1 1
11.6 -14.2 0.2 98 0 1 1
11.6 -10.1 0.1 106 0 1 1
11.6 -9.6 0.1 122 0 1 1
11.7 -13.7 0.2 101 0 1 1
11.7 -13.1 0.2 80 0 1 1
11.7 -12.6 0.2 89 0 1 1
11.7 -11.1 0.1 95 0 1 1
11.7 -10.6 0.1 96 0 1 1
11.8 -12.1 0.1 82 0 1 1
11.8 -11.5 0.1 69 0 1 1
12 -8.6 0.2 109 0 1 1
12.1 -15.8 0.4 92 0 1 1
12.1 -15.7 0.4 102 0 1 1
12.1 -15.2 0.3 105 0 1 1
12.1 -9.5 0.2 92 0 1 1
12.1 -9.1 0.2 101 0 1 1
12.2 -15.7 0.4 104 0 1 1
12.2 -14.7 0.3 95 0 1 1
12.2 -14.1 0.3 93 0 1 1
12.2 -13.6 0.3 76 0 1 1
12.2 -10.5 0.2 100 0 1 1
12.2 -10 0.2 104 0 1 1
12.3 -13.1 0.2 87 0 1 1
12.3 -12.6 0.2 105 0 1 1
12.3 -12 0.2 97 0 1 1
12.3 -11 0.1 100 0 1 1
12.4 -11.5 0.1 94 0 1 1
12.5 -8.6 0.2 77 0 1 1
12.6 -9.6 0.2 95 0 1 1
12.6 -9.1 0.2 104 0 1 1
12.7 -15.4 0.3 76 0 1 1
12.7 -15.2 0.3 98 0 1 1
12.7 -14.7 0.3 94 0 1 1
12.7 -14.2 0.3 106 0 1 1
12.7 -10 0.2 81 0 1 1
12.8 -15.2 0.3 79 0 1 1
12.8 -13.6 0.3 98 0 1 1
12.8 -13.1 0.2 106 0 1 1
12.8 -12.6 0.2 104 0 1 1
12.8 -12 0.2 85 0 1 1
12.8 -11 0.2 82 0 1 1
12.8 -10.5 0.2 99 0 1 1
12.9 -11.5 0.2 97 0 1 1
13.1 -9.1 0.2 101 0 1 1
13.2 -14.9 0.3 101 0 1 1
13.2 -14.7 0.3 102 0 1 1
13.2 -10.1 0.2 101 0 1 1
13.2 -9.6 0.2 108 0 1 1
13.3 -14.2 0.3 85 0 1 1
13.3 -13.7 0.3 99 0 1 1
13.3 -13.1 0.3 103 0 1 1
13.3 -12.6 0.2 99 0 1 1
13.3 -11 0.2 99 0 1 1
13.3 -10.5 0.2 98 0 1 1
13.4 -14.7 0.3 82 0 1 1
13.4 -12.1 0.2 78 0 1 1
13.4 -11.5 0.2 107 0 1 1
13.7 -9.6 0.2 109 0 1 1
13.7 -9.1 0.2 98 0 1 1
13.8 -14.4 0.3 77 0 1 1
13.8 -14.2 0.3 109 0 1 1
13.8 -13.7 0.3 102 0 1 1
13.8 -13.1 0.3 78 0 1 1
13.8 -10.6 0.2 97 0 1 1
13.8 -10.1 0.2 112 0 1 1
13.9 -12.6 0.3 106 0 1 1
13.9 -12.1 0.2 112 0 1 1
13.9 -11.5 0.2 75 0 1 1
13.9 -11 0.2 100 0 1 1
14.1 -14.2 0.3 75 0 1 1
14.2 -9.6 0.2 114 0 1 1
14.2 -9.1 0.2 80 0 1 1
14.3 -10.6 0.2 104 0 1 1
14.3 -10.1 0.2 77 0 1 1
14.4 -13.9 0.3 83 0 1 1
14.4 -13.7 0.3 99 0 1 1
14.4 -13.2 0.3 97 0 1 1
14.4 -12.6 0.3 106 0 1 1
14.4 -12.1 0.3 111 0 1 1
14.4 -11.5 0.2 98 0 1 1
14.4 -11.1 0.2 95 0 1 1
14.5 -13.7 0.3 84 0 1 1
14.8 -10.1 0.3 109 0 1 1
14.8 -9.6 0.2 94 0 1 1
14.9 -13.2 0.3 81 0 1 1
14.9 -12.6 0.3 93 0 1 1
14.9 -12.1 0.3 102 0 1 1
14.9 -11.6 0.3 92 0 1 1
14.9 -11.1 0.3 109 0 1 1
14.9 -10.6 0.3 80 0 1 1
15.3 -10.1 0.3 111 0 1 1
15.3 -9.6 0.3 114 0 1 1
15.4 -12.7 0.3 101 0 1 1
15.4 -12.5 0.3 75 0 1 1
15.4 -11.1 0.3 116 0 1 1
15.4 -10.6 0.3 106 0 1 1
15.5 -12.1 0.3 104 0 1 1
15.5 -11.6 0.3 93 0 1 1
15.8 -12.1 0.3 79 0 1 1
15.9 -11.1 0.3 88 0 1 1
15.9 -10.6 0.3 123 0 1 1
15.9 -10.1 0.3 103 0 1 1
16 -11.9 0.3 91 0 1 1
16 -11.6 0.3 91 0 1 1
16.2 -11.6 0.3 80 0 1 1
16.4 -10.6 0.3 88 0 1 1
16.4 -10.2 0.3 88 0 1 1
16.5 -11.3 0.3 93 0 1 1
16.5 -11.1 0.3 96 0 1 1
16.6 -11.1 0.3 86 0 1 1
16.9 -10.6 0.3 77 0 1 1
16.9 -10.5 0.3 79 0 1 1
16.9 -10.2 0.3 101 0 1 1
17.1 -10.2 0.3 95 0 1 1
