-19.7 3.3 0.1 74 0 1 1
-19.7 3.8 0.1 87 0 1 1
-19.5 4.4 0 89 0 1 1
-19.4 4.9 0 72 0 1 1
-19.3 3.8 0.1 95 0 1 1
-19.3 4.4 0 97 0 1 1
-19.2 3.2 0.1 83 0 1 1
-19.2 4.9 0 74 0 1 1
-19.2 5.3 0 80 0 1 1
-19.2 5.4 0 81 0 1 1
-19.1 5.9 0 78 0 1 1
-18.9 6.4 0 75 0 1 1
-18.8 6.9 0 71 0 1 1
-18.7 3.2 0.1 73 0 1 1
-18.7 3.8 0 94 0 1 1
-18.7 4.3 0 100 0 1 1
-18.7 4.8 0 85 0 1 1
-18.6 5.3 0 85 0 1 1
-18.6 5.8 0 89 0 1 1
-18.6 6.4 0 94 0 1 1
-18.6 6.9 0 69 0 1 1
-18.5 7.4 0 83 0 1 1
-18.5 7.6 0 80 0 1 1
-18.4 7.9 0 71 0 1 1
-18.1 3.2 0 86 0 1 1
-18.1 3.7 0 92 0 1 1
-18.1 4.3 0 95 0 1 1
-18.1 4.8 0 83 0 1 1
-18.1 5.3 0 82 0 1 1
-18.1 8.4 -0.1 71 0 1 1
-18 5.8 0 82 0 1 1
-18 6.3 0 92 0 1 1
-18 6.8 0 63 0 1 1
-18 7.3 0 80 0 1 1
-18 7.9 0 79 0 1 1
-17.9 8.4 -0.1 74 0 1 1
-17.9 8.7 -0.1 85 0 1 1
-17.8 8.9 -0.1 87 0 1 1
-17.6 9.4 -0.1 89 0 1 1
-17.5 3.1 0 82 0 1 1
-17.5 3.7 0 88 0 1 1
-17.5 4.2 0 90 0 1 1
-17.5 4.7 0 90 0 1 1
-17.5 5.3 0 83 0 1 1
-17.5 5.8 0 92 0 1 1
-17.4 6.3 0 89 0 1 1
-17.4 6.8 0 57 0 1 1
-17.4 7.3 0 81 0 1 1
-17.4 7.8 -0.1 93 0 1 1
-17.4 8.4 -0.1 85 0 1 1
-17.4 8.9 -0.1 88 0 1 1
-17.3 9.4 -0.1 96 0 1 1
-17.3 9.9 -0.1 82 0 1 1
-17 10.4 -0.1 85 0 1 1
-16.9 3.1 0 86 0 1 1
-16.9 3.6 0 88 0 1 1
-16.9 4.2 0 94 0 1 1
-16.9 4.7 0 92 0 1 1
-16.9 5.2 0 85 0 1 1
-16.9 5.7 0 95 0 1 1
-16.9 6.3 0 83 0 1 1
-16.9 6.8 0 62 0 1 1
-16.8 7.3 -0.1 80 0 1 1
-16.8 7.8 -0.1 82 0 1 1
-16.8 8.3 -0.1 80 0 1 1
-16.8 8.9 -0.1 94 0 1 1
-16.8 9.4 -0.1 89 0 1 1
-16.8 9.9 -0.1 88 0 1 1
-16.7 10.4 -0.1 93 0 1 1
-16.7 10.9 -0.1 80 0 1 1
-16.7 11.1 -0.1 82 0 1 1
-16.4 2.5 0 89 0 1 1
-16.4 3 0 101 0 1 1
-16.4 3.6 0 85 0 1 1
-16.4 4.1 0 97 0 1 1
-16.4 11.5 -0.1 78 0 1 1
-16.3 4.7 0 100 0 1 1
-16.3 5.2 0 88 0 1 1
-16.3 5.7 0 95 0 1 1
-16.3 6.2 0 89 0 1 1
-16.3 6.7 0 83 0 1 1
-16.3 7.3 -0.1 79 0 1 1
-16.3 7.8 -0.1 75 0 1 1
-16.2 8.3 -0.1 84 0 1 1
-16.2 8.8 -0.1 91 0 1 1
-16.2 9.4 -0.1 90 0 1 1
-16.2 9.9 -0.1 87 0 1 1
-16.2 10.4 -0.1 91 0 1 1
-16.2 10.9 -0.1 89 0 1 1
-16.2 11.5 -0.1 79 0 1 1
-16.2 11.7 -0.1 73 0 1 1
-15.9 12 -0.1 76 0 1 1
-15.8 2.4 0 88 0 1 1
-15.8 3 0 97 0 1 1
-15.8 3.5 0 82 0 1 1
-15.8 4.1 0 97 0 1 1
-15.8 4.6 0 89 0 1 1
-15.8 5.1 0 89 0 1 1
-15.7 5.7 0 93 0 1 1
-15.7 6.2 0 95 0 1 1
-15.7 6.7 -0.1 78 0 1 1
-15.7 7.2 -0.1 78 0 1 1
-15.7 7.8 -0.1 75 0 1 1
-15.7 8.3 -0.1 83 0 1 1
-15.7 8.8 -0.1 91 0 1 1
-15.7 9.4 -0.1 85 0 1 1
-15.6 9.9 -0.1 91 0 1 1
-15.6 10.4 -0.1 91 0 1 1
-15.6 10.9 -0.1 91 0 1 1
-15.6 11.5 -0.1 80 0 1 1
-15.6 12 -0.1 82 0 1 1
-15.6 12.4 -0.1 76 0 1 1
-15.5 12.5 -0.1 78 0 1 1
-15.2 2.4 0 86 0 1 1
-15.2 2.9 0 108 0 1 1
-15.2 3.5 0 86 0 1 1
-15.2 4 0 97 0 1 1
-15.2 4.6 0 93 0 1 1
-15.2 5.1 0 84 0 1 1
-15.2 5.6 -0.1 94 0 1 1
-15.2 6.2 -0.1 97 0 1 1
-15.1 6.7 -0.1 91 0 1 1
-15.1 7.2 -0.1 71 0 1 1
-15.1 7.8 -0.1 78 0 1 1
-15.1 8.3 -0.1 79 0 1 1
-15.1 8.8 -0.1 90 0 1 1
-15.1 9.4 -0.1 83 0 1 1
-15.1 9.9 -0.1 91 0 1 1
-15.1 10.4 -0.1 91 0 1 1
-15.1 10.9 -0.1 90 0 1 1
-15.1 11.5 -0.1 78 0 1 1
-14.7 2.3 0 86 0 1 1
-14.6 2.9 0 80 0 1 1
-14.6 3.4 0 78 0 1 1
-14.6 4 0 98 0 1 1
-14.6 4.5 0 94 0 1 1
-14.6 5.1 -0.1 75 0 1 1
-14.6 5.6 -0.1 90 0 1 1
-14.6 6.1 -0.1 95 0 1 1
-14.6 6.7 -0.1 98 0 1 1
-14.6 7.2 -0.1 77 0 1 1
-14.6 7.7 -0.1 79 0 1 1
-14.6 8.3 -0.1 77 0 1 1
-14.5 8.8 -0.1 82 0 1 1
-14.5 9.3 -0.1 90 0 1 1
-14.5 9.9 -0.1 89 0 1 1
-14.5 10.4 -0.1 90 0 1 1
-14.5 11 -0.1 81 0 1 1
-14.1 2.3 0 91 0 1 1
-14.1 2.8 0 90 0 1 1
-14.1 3.4 0 83 0 1 1
-14 3.9 0 98 0 1 1
-14 4.5 -0.1 93 0 1 1
-14 5 -0.1 71 0 1 1
-14 5.6 -0.1 89 0 1 1
-14 6.1 -0.1 92 0 1 1
-14 6.6 -0.1 100 0 1 1
-14 7.2 -0.1 86 0 1 1
-14 7.7 -0.1 84 0 1 1
-14 8.3 -0.1 81 0 1 1
-14 8.8 -0.1 87 0 1 1
-14 9.3 -0.1 88 0 1 1
-14 9.9 -0.1 89 0 1 1
-13.5 2.3 0 85 0 1 1
-13.5 2.8 0 74 0 1 1
-13.5 3.3 0 80 0 1 1
-13.4 4.4 -0.1 96 0 1 1
-13.4 5 -0.1 63 0 1 1
-13.4 5.5 -0.1 85 0 1 1
-13.4 6.1 -0.1 91 0 1 1
-13.4 6.6 -0.1 91 0 1 1
-13.4 7.2 -0.1 85 0 1 1
-13.4 7.7 -0.1 81 0 1 1
-13.4 8.2 -0.1 79 0 1 1
-13.4 8.8 -0.1 89 0 1 1
-13.4 9.3 -0.1 81 0 1 1
-12.9 2.2 0 90 0 1 1
-12.9 2.8 0 59 0 1 1
-12.9 4.4 -0.1 98 0 1 1
-12.9 4.9 -0.1 76 0 1 1
-12.9 5.5 -0.1 83 0 1 1
-12.9 6 -0.1 88 0 1 1
-12.9 6.6 -0.1 85 0 1 1
-12.9 7.1 -0.1 82 0 1 1
-12.9 7.7 -0.1 85 0 1 1
-12.9 8.2 -0.1 78 0 1 1
-12.9 8.8 -0.1 86 0 1 1
-12.4 2.2 0 89 0 1 1
-12.3 2.7 0 77 0 1 1
-12.3 4.3 -0.1 95 0 1 1
-12.3 4.9 -0.1 83 0 1 1
-12.3 5.4 -0.1 81 0 1 1
-12.3 6 -0.1 92 0 1 1
-12.3 6.6 -0.1 96 0 1 1
-12.3 7.1 -0.1 88 0 1 1
-12.3 7.7 -0.1 83 0 1 1
-12.3 8.2 -0.1 86 0 1 1
-12.3 15.2 -0.1 82 0 1 1
-12.3 15.6 -0.1 75 0 1 1
-12.2 15.8 -0.1 80 0 1 1
-11.8 2.1 0 96 0 1 1
-11.8 14.7 -0.1 82 0 1 1
-11.8 15.2 -0.1 79 0 1 1
-11.8 15.8 -0.1 84 0 1 1
-11.8 16.1 -0.1 76 0 1 1
-11.7 4.3 -0.1 93 0 1 1
-11.7 4.9 -0.1 84 0 1 1
-11.7 5.4 -0.1 81 0 1 1
-11.7 6 -0.1 87 0 1 1
-11.7 6.5 -0.1 98 0 1 1
-11.7 7.1 -0.1 86 0 1 1
-11.7 7.6 -0.1 91 0 1 1
-11.5 16.3 -0.1 79 0 1 1
-11.3 2.2 -0.1 94 0 1 1
-11.3 14.2 -0.1 93 0 1 1
-11.3 14.7 -0.1 85 0 1 1
-11.3 15.2 -0.1 88 0 1 1
-11.3 15.8 -0.1 84 0 1 1
-11.3 16.3 -0.1 83 0 1 1
-11.3 16.5 -0.1 81 0 1 1
-11.2 4.3 -0.1 96 0 1 1
-11.2 4.9 -0.1 90 0 1 1
-11.2 5.4 -0.1 81 0 1 1
-11.2 6 -0.1 89 0 1 1
-11.2 6.5 -0.1 91 0 1 1
-11.2 7.1 -0.1 93 0 1 1
-11.2 7.7 -0.1 92 0 1 1
-11.2 16.6 -0.1 83 0 1 1
-10.9 2.5 0.3 125 0 1 2
-10.9 3.4 0.3 97 0 1 2
-10.8 1.7 -0.1 90 0 1 1
-10.8 2.4 0.1 88 0 1 2
-10.8 2.5 0.3 84 0 1 2
-10.8 2.6 0.3 120 0 1 2
-10.8 2.7 0.3 91 0 1 2
-10.8 2.8 0.3 82 0 1 2
-10.8 3.2 0.4 90 0 1 2
-10.8 3.6 0.2 92 0 1 2
-10.8 13.6 -0.1 89 0 1 1
-10.8 14.2 -0.1 85 0 1 1
-10.8 14.7 -0.1 86 0 1 1
-10.8 15.2 -0.1 89 0 1 1
-10.8 15.8 -0.1 84 0 1 1
-10.8 16.3 -0.1 84 0 1 1
-10.8 16.8 -0.1 87 0 1 1
-10.7 2.2 -0.1 83 0 1 1
-10.7 2.8 0.4 83 0 1 2
-10.7 3.1 0.4 93 0 1 2
-10.7 3.2 0.4 91 0 1 2
-10.7 3.4 0.2 92 0 1 2
-10.7 5.5 -0.1 78 0 1 1
-10.7 6 -0.1 93 0 1 1
-10.7 6.6 -0.1 96 0 1 1
-10.7 7.1 -0.1 86 0 1 1
-10.7 16.8 -0.1 87 0 1 1
-10.6 2.2 0 81 0 1 2
-10.6 2.7 0.3 91 0 1 2
-10.6 2.8 0.3 100 0 1 2
-10.6 3.5 0.1 93 0 1 2
-10.6 3.5 0.2 110 0 1 2
-10.6 3.6 0.1 88 0 1 2
-10.6 3.8 -0.1 81 0 1 1
-10.6 4.4 -0.1 84 0 1 1
-10.6 4.9 -0.1 88 0 1 1
-10.5 2.6 0.3 82 0 1 2
-10.5 3.5 0.1 114 0 1 2
-10.4 2.2 -0.1 83 0 1 2
-10.4 3 0.1 102 0 1 2
-10.4 3.6 0 96 0 1 2
-10.3 2.3 -0.1 88 0 1 2
-10.3 2.5 0.1 97 0 1 2
-10.3 13.1 -0.1 85 0 1 1
-10.3 13.6 -0.1 88 0 1 1
-10.3 14.2 -0.1 87 0 1 1
-10.3 14.7 -0.1 89 0 1 1
-10.2 1.7 -0.1 82 0 1 1
-10.2 2.2 -0.1 96 0 1 2
-10.2 2.3 -0.1 86 0 1 1
-10.2 2.4 0 94 0 1 2
-10.2 2.6 0 98 0 1 2
-10.2 2.8 0 104 0 1 2
-10.2 2.9 0 73 0 1 2
-10.2 3.4 -0.1 93 0 1 2
-10.2 15.2 -0.1 83 0 1 1
-10.2 15.7 -0.1 84 0 1 1
-10.2 16.3 -0.1 84 0 1 1
-10.2 16.8 -0.1 88 0 1 1
-10.2 17.1 -0.1 89 0 1 1
-10.1 3.3 -0.1 81 0 1 1
-10.1 3.9 -0.2 95 0 1 1
-10.1 4.4 -0.2 95 0 1 1
-10.1 5 -0.1 86 0 1 1
-10.1 5.5 -0.1 84 0 1 1
-10.1 6.1 -0.1 94 0 1 1
-10.1 6.6 -0.1 97 0 1 1
-9.8 7.2 0.5 82 0 1 3
-9.8 7.5 0.6 69 0 1 3
-9.8 12 -0.1 97 0 1 1
-9.8 12.6 -0.1 94 0 1 1
-9.8 13.1 -0.1 85 0 1 1
-9.8 17.3 -0.1 73 0 1 1
-9.7 1.8 -0.1 93 0 1 1
-9.7 6.7 0.4 73 0 1 3
-9.7 13.6 -0.1 86 0 1 1
-9.7 14.1 -0.1 91 0 1 1
-9.7 14.7 -0.1 92 0 1 1
-9.7 15.2 -0.1 91 0 1 1
-9.7 15.7 -0.1 80 0 1 1
-9.7 16.3 -0.1 81 0 1 1
-9.7 16.8 -0.1 99 0 1 1
-9.7 17.3 -0.1 73 0 1 1
-9.6 2.3 -0.1 90 0 1 1
-9.6 2.9 -0.1 110 0 1 1
-9.6 3.4 -0.2 80 0 1 1
-9.6 3.9 -0.2 86 0 1 1
-9.6 4.5 -0.2 96 0 1 1
-9.6 5 -0.2 89 0 1 1
-9.6 5.5 -0.2 90 0 1 1
-9.6 6.1 -0.2 92 0 1 1
-9.6 6.6 -0.1 71 0 1 1
-9.6 6.8 0.5 82 0 1 3
-9.5 6.5 0.3 92 0 1 3
-9.4 7.2 0.6 79 0 1 3
-9.3 6.4 0.2 54 0 1 3
-9.3 12 -0.1 90 0 1 1
-9.3 12.5 -0.1 92 0 1 1
-9.2 1.3 -0.1 83 0 1 1
-9.2 7.7 0.7 74 0 1 3
-9.2 11.5 -0.1 87 0 1 1
-9.2 13.1 -0.1 87 0 1 1
-9.2 13.6 -0.1 84 0 1 1
-9.2 14.1 -0.1 88 0 1 1
-9.2 14.7 -0.1 85 0 1 1
-9.2 15.2 -0.1 96 0 1 1
-9.2 15.7 -0.1 84 0 1 1
-9.2 16.3 -0.1 79 0 1 1
-9.2 16.8 -0.1 92 0 1 1
-9.2 17.3 -0.1 88 0 1 1
-9.2 17.6 -0.1 78 0 1 1
-9.1 1.8 -0.1 85 0 1 1
-9.1 2.4 -0.2 78 0 1 1
-9.1 2.9 -0.2 116 0 1 1
-9.1 5.6 -0.2 89 0 1 1
-9.1 6.1 -0.2 94 0 1 1
-9 3.4 -0.2 79 0 1 1
-9 4 -0.2 85 0 1 1
-9 4.5 -0.2 100 0 1 1
-9 5 -0.2 95 0 1 1
-8.9 6.5 -0.1 66 0 1 3
-8.8 6.8 0.6 77 0 1 3
-8.8 12 -0.1 86 0 1 1
-8.8 17.8 0 77 0 1 1
-8.7 6.9 0.7 69 0 1 3
-8.7 7 0.7 80 0 1 3
-8.7 7.9 0.9 77 0 1 3
-8.7 10.9 -0.1 91 0 1 1
-8.7 11.5 -0.1 80 0 1 1
-8.7 12.5 -0.1 92 0 1 1
-8.7 13.1 -0.1 85 0 1 1
-8.7 13.6 -0.1 85 0 1 1
-8.7 14.1 -0.1 83 0 1 1
-8.7 14.6 -0.1 95 0 1 1
-8.7 15.2 -0.1 94 0 1 1
-8.7 15.7 -0.1 80 0 1 1
-8.7 16.2 -0.1 81 0 1 1
-8.7 16.8 0 86 0 1 1
-8.7 17.3 0 90 0 1 1
-8.7 17.8 0 76 0 1 1
-8.7 17.9 0 76 0 1 1
-8.6 1.3 -0.2 94 0 1 1
-8.6 1.9 -0.2 47 0 1 1
-8.6 2.4 -0.2 72 0 1 1
-8.6 6.7 0.5 67 0 1 3
-8.5 2.9 -0.2 108 0 1 1
-8.5 3.5 -0.2 78 0 1 1
-8.5 4 -0.2 75 0 1 1
-8.5 4.6 -0.2 98 0 1 1
-8.5 5.1 -0.2 99 0 1 1
-8.5 5.6 -0.2 95 0 1 1
-8.5 6.1 -0.2 86 0 1 1
-8.4 6.5 0.3 60 0 1 3
-8.4 7.4 0.9 79 0 1 3
-8.3 6.5 0.4 80 0 1 3
-8.3 12 0 89 0 1 1
-8.2 6.5 -0.2 71 0 1 3
-8.2 8 1 73 0 1 3
-8.2 10.4 -0.1 90 0 1 1
-8.2 10.9 -0.1 84 0 1 1
-8.2 11.4 -0.1 78 0 1 1
-8.2 12.5 0 94 0 1 1
-8.2 13 0 86 0 1 1
-8.2 13.6 0 91 0 1 1
-8.2 14.1 0 78 0 1 1
-8.2 14.6 0 95 0 1 1
-8.2 15.2 0 94 0 1 1
-8.2 15.7 0 78 0 1 1
-8.2 16.2 0 78 0 1 1
-8.2 16.8 0 81 0 1 1
-8.2 17.3 0 90 0 1 1
-8.2 17.8 0 80 0 1 1
-8.2 18.2 0 77 0 1 1
-8.1 1.4 -0.2 90 0 1 1
-8.1 8 1 75 0 1 3
-8 1.9 -0.2 89 0 1 1
-8 2.5 -0.2 87 0 1 1
-8 3 -0.2 96 0 1 1
-8 3.5 -0.2 86 0 1 1
-8 4.6 -0.2 94 0 1 1
-8 5.1 -0.2 104 0 1 1
-8 5.6 -0.2 95 0 1 1
-8 6.2 -0.2 87 0 1 1
-7.9 4.1 -0.2 75 0 1 1
-7.9 6.9 0.8 62 0 1 3
-7.9 7.6 1 82 0 1 3
-7.8 12 0 89 0 1 1
-7.8 18.4 0 78 0 1 1
-7.7 7 0.6 83 0 1 3
-7.7 7.1 1 84 0 1 3
-7.7 7.7 1 103 0 1 3
-7.7 8.5 0.9 95 0 1 3
-7.7 9.9 -0.1 80 0 1 1
-7.7 10.4 -0.1 81 0 1 1
-7.7 10.9 -0.1 89 0 1 1
-7.7 11.4 0 82 0 1 1
-7.7 12.5 0 93 0 1 1
-7.7 13 0 85 0 1 1
-7.7 13.6 0 86 0 1 1
-7.7 14.1 0 89 0 1 1
-7.7 14.6 0 97 0 1 1
-7.7 15.2 0 93 0 1 1
-7.7 15.7 0 80 0 1 1
-7.7 16.2 0 80 0 1 1
-7.7 16.8 0 85 0 1 1
-7.7 18.4 0 78 0 1 1
-7.6 6.9 -0.2 60 0 1 3
-7.6 7.1 1 79 0 1 3
-7.6 7.2 1 91 0 1 3
-7.6 9.3 -0.1 86 0 1 1
-7.6 17.3 0 84 0 1 1
-7.6 17.8 0 81 0 1 1
-7.6 18.4 0 90 0 1 1
-7.5 1.4 -0.2 73 0 1 1
-7.5 2 -0.2 91 0 1 1
-7.5 2.5 -0.2 95 0 1 1
-7.5 5.7 -0.2 91 0 1 1
-7.5 6.2 -0.2 78 0 1 1
-7.5 6.7 -0.2 99 0 1 1
-7.5 7.1 0.3 70 0 1 3
-7.5 8 0.9 96 0 1 3
-7.5 8.2 0.9 103 0 1 3
-7.5 9.2 0.1 85 0 1 3
-7.5 9.3 0.4 97 0 1 3
-7.4 3 -0.2 100 0 1 1
-7.4 3.6 -0.3 89 0 1 1
-7.4 4.1 -0.3 78 0 1 1
-7.4 4.6 -0.3 94 0 1 1
-7.4 5.2 -0.2 103 0 1 1
-7.3 7.3 0.9 83 0 1 3
-7.3 9 0.2 92 0 1 3
-7.3 9 0.7 86 0 1 3
-7.3 11.9 0 87 0 1 1
-7.2 7.2 -0.1 59 0 1 3
-7.2 8.8 0.2 81 0 1 3
-7.2 8.9 0.5 94 0 1 3
-7.2 10.4 -0.1 83 0 1 1
-7.2 10.9 0 90 0 1 1
-7.2 11.4 0 92 0 1 1
-7.2 12.5 0 86 0 1 1
-7.2 13 0 86 0 1 1
-7.2 13.5 0 91 0 1 1
-7.2 14.1 0 93 0 1 1
-7.2 14.6 0 96 0 1 1
-7.2 15.1 0 92 0 1 1
-7.2 15.7 0 84 0 1 1
-7.2 16.2 0 81 0 1 1
-7.1 7.3 0.4 71 0 1 3
-7.1 8.3 -0.1 86 0 1 1
-7.1 8.8 -0.1 76 0 1 1
-7.1 9.3 -0.1 89 0 1 1
-7.1 9.9 -0.1 82 0 1 1
-7.1 16.8 0 79 0 1 1
-7.1 17.3 0 91 0 1 1
-7.1 17.8 0 89 0 1 1
-7.1 18.4 0 89 0 1 1
-7.1 18.6 0 80 0 1 1
-7 0.9 -0.2 89 0 1 1
-7 1.5 -0.2 87 0 1 1
-7 2 -0.2 92 0 1 1
-7 6.2 -0.2 83 0 1 1
-7 6.8 -0.2 96 0 1 1
-7 7.3 -0.2 94 0 1 1
-7 7.3 -0.1 61 0 1 3
-7 7.4 0.4 70 0 1 3
-6.9 2.6 -0.3 67 0 1 1
-6.9 3.1 -0.3 102 0 1 1
-6.9 3.6 -0.3 92 0 1 1
-6.9 4.2 -0.3 73 0 1 1
-6.9 4.7 -0.3 94 0 1 1
-6.9 5.2 -0.3 102 0 1 1
-6.9 5.7 -0.2 95 0 1 1
-6.9 7.5 0.8 81 0 1 3
-6.9 7.6 0.2 89 0 1 3
-6.9 8.3 0.2 78 0 1 3
-6.9 8.3 0.7 99 0 1 3
-6.8 7.8 0.5 62 0 1 3
-6.8 8 0.7 110 0 1 3
-6.7 8 0.1 82 0 1 3
-6.7 8 0.6 104 0 1 3
-6.7 10.4 -0.1 90 0 1 1
-6.7 10.9 0 77 0 1 1
-6.7 11.4 0 94 0 1 1
-6.7 11.9 0 85 0 1 1
-6.7 12.5 0 88 0 1 1
-6.7 13 0 84 0 1 1
-6.7 13.5 0 91 0 1 1
-6.7 14.1 0 77 0 1 1
-6.7 14.6 0 90 0 1 1
-6.7 15.1 0 82 0 1 1
-6.7 15.7 0 87 0 1 1
-6.6 8.8 -0.1 82 0 1 1
-6.6 9.3 -0.1 94 0 1 1
-6.6 9.9 -0.1 90 0 1 1
-6.6 16.2 0 83 0 1 1
-6.6 16.7 0 77 0 1 1
-6.6 17.3 0 91 0 1 1
-6.6 17.8 0 95 0 1 1
-6.6 18.4 0 86 0 1 1
-6.6 18.8 0 73 0 1 1
-6.5 1 -0.2 94 0 1 1
-6.5 6.8 -0.2 95 0 1 1
-6.5 7.3 -0.2 93 0 1 1
-6.5 7.8 -0.2 92 0 1 1
-6.5 8.3 -0.1 80 0 1 1
-6.4 1.5 -0.3 87 0 1 1
-6.4 2.1 -0.3 93 0 1 1
-6.4 2.6 -0.3 93 0 1 1
-6.4 3.1 -0.3 99 0 1 1
-6.4 5.2 -0.3 101 0 1 1
-6.4 5.8 -0.3 100 0 1 1
-6.4 6.3 -0.2 76 0 1 1
-6.3 3.7 -0.3 88 0 1 1
-6.3 4.2 -0.3 72 0 1 1
-6.3 4.7 -0.3 91 0 1 1
-6.2 10.4 0 90 0 1 1
-6.2 10.9 0 88 0 1 1
-6.2 11.4 0 97 0 1 1
-6.2 11.9 0 79 0 1 1
-6.2 12.4 0 92 0 1 1
-6.2 13 0 84 0 1 1
-6.2 13.5 0 91 0 1 1
-6.2 14.1 0 91 0 1 1
-6.2 14.6 0 87 0 1 1
-6.2 15.1 0 89 0 1 1
-6.2 18.9 0 85 0 1 1
-6.1 8.8 -0.1 91 0 1 1
-6.1 9.4 -0.1 97 0 1 1
-6.1 9.9 -0.1 92 0 1 1
-6.1 15.7 0 92 0 1 1
-6.1 16.2 0 89 0 1 1
-6.1 16.7 0 84 0 1 1
-6.1 17.3 0 84 0 1 1
-6.1 17.8 0 98 0 1 1
-6.1 18.4 0 86 0 1 1
-6 7.3 -0.2 96 0 1 1
-6 7.8 -0.2 92 0 1 1
-6 8.3 -0.1 91 0 1 1
-6 18.9 0 83 0 1 1
-5.9 1 -0.3 90 0 1 1
-5.9 1.6 -0.3 89 0 1 1
-5.9 2.1 -0.3 92 0 1 1
-5.9 5.8 -0.3 108 0 1 1
-5.9 6.3 -0.2 77 0 1 1
-5.9 6.8 -0.2 97 0 1 1
-5.8 2.7 -0.3 101 0 1 1
-5.8 3.2 -0.3 81 0 1 1
-5.8 3.7 -0.3 89 0 1 1
-5.8 4.3 -0.3 84 0 1 1
-5.8 4.8 -0.3 100 0 1 1
-5.8 5.3 -0.3 105 0 1 1
-5.7 10.9 0 90 0 1 1
-5.7 11.4 0 91 0 1 1
-5.7 11.9 0 87 0 1 1
-5.7 12.4 0 93 0 1 1
-5.7 13 0 87 0 1 1
-5.7 13.5 0 91 0 1 1
-5.7 14 0 90 0 1 1
-5.7 14.6 0 94 0 1 1
-5.6 9.4 -0.1 90 0 1 1
-5.6 9.9 -0.1 93 0 1 1
-5.6 10.4 0 93 0 1 1
-5.6 15.1 0 90 0 1 1
-5.6 15.7 0 91 0 1 1
-5.6 16.2 0 92 0 1 1
-5.6 16.7 0 92 0 1 1
-5.6 17.3 0 88 0 1 1
-5.6 17.8 0 96 0 1 1
-5.5 7.8 -0.2 89 0 1 1
-5.5 8.3 -0.1 95 0 1 1
-5.5 8.8 -0.1 91 0 1 1
-5.5 18.4 0 82 0 1 1
-5.5 18.9 0 86 0 1 1
-5.5 19.1 0 84 0 1 1
-5.4 1.1 -0.3 91 0 1 1
-5.4 6.3 -0.3 84 0 1 1
-5.4 6.8 -0.2 80 0 1 1
-5.4 7.3 -0.2 94 0 1 1
-5.3 1.6 -0.3 84 0 1 1
-5.3 2.2 -0.3 93 0 1 1
-5.3 2.7 -0.3 58 0 1 1
-5.3 3.2 -0.3 93 0 1 1
-5.3 3.8 -0.4 88 0 1 1
-5.3 4.8 -0.3 93 0 1 1
-5.3 5.3 -0.3 103 0 1 1
-5.3 5.8 -0.3 107 0 1 1
-5.2 4.3 -0.4 86 0 1 1
-5.2 10.9 0 87 0 1 1
-5.2 11.4 0 85 0 1 1
-5.2 11.9 0.1 93 0 1 1
-5.2 12.4 0.1 87 0 1 1
-5.2 12.9 0.1 87 0 1 1
-5.2 13.5 0.1 96 0 1 1
-5.2 14 0 86 0 1 1
-5.2 14.6 0 96 0 1 1
-5.1 9.4 -0.1 91 0 1 1
-5.1 9.9 -0.1 95 0 1 1
-5.1 10.4 0 86 0 1 1
-5.1 15.1 0 89 0 1 1
-5.1 15.6 0 91 0 1 1
-5.1 16.2 0 91 0 1 1
-5.1 16.7 0 89 0 1 1
-5.1 17.3 0 92 0 1 1
-5 7.9 -0.2 92 0 1 1
-5 8.4 -0.1 96 0 1 1
-5 8.9 -0.1 80 0 1 1
-5 17.8 0 95 0 1 1
-5 18.3 0 83 0 1 1
-5 18.9 0 91 0 1 1
-5 19.3 0 75 0 1 1
-4.9 6.9 -0.2 85 0 1 1
-4.9 7.4 -0.2 92 0 1 1
-4.8 0.6 -0.3 87 0 1 1
-4.8 1.1 -0.3 86 0 1 1
-4.8 1.7 -0.3 87 0 1 1
-4.8 2.2 -0.3 96 0 1 1
-4.8 2.6 -0.2 73 0 1 2
-4.8 2.8 -0.2 82 0 1 2
-4.8 5.4 -0.3 101 0 1 1
-4.8 5.9 -0.3 52 0 1 1
-4.8 6.4 -0.3 85 0 1 1
-4.7 2.9 -0.1 85 0 1 2
-4.7 3.8 -0.4 91 0 1 1
-4.7 4.4 -0.4 86 0 1 1
-4.7 4.9 -0.4 95 0 1 1
-4.7 10.9 0 78 0 1 1
-4.7 11.3 0 84 0 1 1
-4.7 11.8 0.1 93 0 1 1
-4.7 12.4 0.1 88 0 1 1
-4.7 12.9 0.1 91 0 1 1
-4.7 13.5 0.1 93 0 1 1
-4.7 14 0.1 92 0 1 1
-4.6 2.5 -0.2 67 0 1 2
-4.6 2.8 -0.1 88 0 1 2
-4.6 9.4 -0.1 84 0 1 1
-4.6 9.9 0 90 0 1 1
-4.6 10.4 0 85 0 1 1
-4.6 14.6 0.1 95 0 1 1
-4.6 15.1 0.1 84 0 1 1
-4.6 15.6 0 98 0 1 1
-4.6 16.2 0 94 0 1 1
-4.6 16.7 0 87 0 1 1
-4.5 2.4 -0.2 61 0 1 2
-4.5 5.4 -0.1 101 0 1 2
-4.5 8.4 -0.1 92 0 1 1
-4.5 8.9 -0.1 92 0 1 1
-4.5 17.3 0 91 0 1 1
-4.5 17.8 0 91 0 1 1
-4.5 18.3 0 81 0 1 1
-4.5 18.9 0 85 0 1 1
-4.5 19.4 0 81 0 1 1
-4.4 2.3 -0.2 93 0 1 2
-4.4 2.4 -0.2 66 0 1 2
-4.4 2.4 -0.1 75 0 1 2
-4.4 2.5 -0.1 83 0 1 2
-4.4 3 -0.1 96 0 1 2
-4.4 5.2 -0.3 83 0 1 2
-4.4 6.9 -0.2 89 0 1 1
-4.4 7.4 -0.2 85 0 1 1
-4.4 7.9 -0.2 91 0 1 1
-4.4 19.4 0 80 0 1 1
-4.3 1.2 -0.3 88 0 1 1
-4.3 1.7 -0.3 90 0 1 1
-4.3 2.3 -0.3 89 0 1 2
-4.3 2.4 -0.2 134 0 1 2
-4.3 2.5 -0.1 83 0 1 2
-4.3 3 -0.1 101 0 1 2
-4.3 5.2 -0.1 64 0 1 2
-4.3 5.3 -0.1 67 0 1 2
-4.3 5.4 -0.1 95 0 1 2
-4.3 5.7 -0.1 96 0 1 2
-4.3 6.4 -0.3 87 0 1 1
-4.2 2.3 -0.4 84 0 1 1
-4.2 2.3 -0.3 81 0 1 2
-4.2 2.6 -0.1 112 0 1 2
-4.2 3.1 -0.2 93 0 1 2
-4.2 3.1 -0.1 99 0 1 2
-4.2 3.2 -0.4 97 0 1 2
-4.2 3.3 -0.4 97 0 1 1
-4.2 3.9 -0.4 93 0 1 1
-4.2 4.4 -0.4 82 0 1 1
-4.2 4.9 -0.4 94 0 1 1
-4.2 5 -0.4 56 0 1 2
-4.2 10.8 0 99 0 1 1
-4.2 11.3 0.1 81 0 1 1
-4.2 11.8 0.1 90 0 1 1
-4.2 12.4 0.1 88 0 1 1
-4.2 12.9 0.1 92 0 1 1
-4.2 13.5 0.1 94 0 1 1
-4.2 14 0.1 94 0 1 1
-4.1 2.4 -0.3 140 0 1 2
-4.1 4.9 -0.3 53 0 1 2
-4.1 5 -0.1 59 0 1 2
-4.1 5.2 -0.1 88 0 1 2
-4.1 5.6 -0.1 109 0 1 2
-4.1 5.7 -0.1 120 0 1 2
-4.1 5.9 -0.2 117 0 1 2
-4.1 9.9 0 101 0 1 1
-4.1 10.4 0 91 0 1 1
-4.1 14.5 0.1 97 0 1 1
-4.1 15.1 0.1 95 0 1 1
-4.1 15.6 0.1 91 0 1 1
-4.1 16.2 0.1 97 0 1 1
-4 2.7 -0.2 126 0 1 2
-4 2.7 -0.1 99 0 1 2
-4 2.9 -0.2 109 0 1 2
-4 8.4 -0.2 101 0 1 1
-4 8.9 -0.1 102 0 1 1
-4 9.4 -0.1 87 0 1 1
-4 16.7 0 77 0 1 1
-4 17.3 0 85 0 1 1
-4 17.8 0 94 0 1 1
-4 18.3 0 91 0 1 1
-4 18.9 0 88 0 1 1
-3.9 2.6 -0.3 138 0 1 2
-3.9 2.7 -0.3 131 0 1 2
-3.9 2.9 -0.4 92 0 1 2
-3.9 2.9 -0.3 117 0 1 2
-3.9 2.9 -0.2 90 0 1 2
-3.9 5 -0.2 98 0 1 2
-3.9 5.5 -0.1 123 0 1 2
-3.9 7.4 -0.2 93 0 1 1
-3.9 7.9 -0.2 97 0 1 1
-3.9 19.4 0 90 0 1 1
-3.9 19.6 0 89 0 1 1
-3.8 5 -0.3 99 0 1 2
-3.8 5.2 -0.1 118 0 1 2
-3.8 5.4 -0.2 88 0 1 2
-3.8 5.4 -0.1 140 0 1 2
-3.8 5.5 -0.1 101 0 1 2
-3.8 5.6 -0.2 132 0 1 2
-3.8 5.8 -0.2 120 0 1 2
-3.8 5.9 -0.3 108 0 1 1
-3.8 6.4 -0.3 100 0 1 1
-3.8 6.9 -0.3 83 0 1 1
-3.7 1.8 -0.4 85 0 1 1
-3.7 2.3 -0.4 98 0 1 1
-3.7 2.8 -0.4 80 0 1 1
-3.7 3.4 -0.4 103 0 1 1
-3.7 4.9 -0.4 83 0 1 1
-3.7 5.2 -0.3 76 0 1 2
-3.7 5.3 -0.4 101 0 1 2
-3.7 5.4 -0.2 91 0 1 2
-3.7 5.5 -0.2 107 0 1 2
-3.7 5.7 -0.3 108 0 1 2
-3.7 11.8 0.1 96 0 1 1
-3.7 12.3 0.1 93 0 1 1
-3.6 3.9 -0.4 101 0 1 1
-3.6 4.4 -0.4 85 0 1 1
-3.6 5.6 -0.3 92 0 1 2
-3.6 10.3 -0.3 93 0 1 1
-3.6 10.8 -0.2 101 0 1 1
-3.6 11.3 0 83 0 1 1
-3.6 12.9 0.1 91 0 1 1
-3.6 13.4 0.1 86 0 1 1
-3.6 14 0.1 96 0 1 1
-3.6 14.5 0.1 77 0 1 1
-3.6 15.1 0 96 0 1 1
-3.5 8.8 -0.4 98 0 1 1
-3.5 9.3 -0.4 97 0 1 1
-3.5 9.8 -0.3 109 0 1 1
-3.5 15.6 0 92 0 1 1
-3.5 16.2 0 92 0 1 1
-3.5 16.7 0 90 0 1 1
-3.5 17.2 0 95 0 1 1
-3.5 17.8 0 92 0 1 1
-3.4 7.9 -0.5 93 0 1 1
-3.4 8.4 -0.4 90 0 1 1
-3.4 18.3 0 94 0 1 1
-3.4 18.9 0 89 0 1 1
-3.4 19.4 0 98 0 1 1
-3.4 19.6 0 74 0 1 1
-3.3 6.4 -0.3 107 0 1 1
-3.3 6.9 -0.3 90 0 1 1
-3.3 7.4 -0.4 105 0 1 1
-3.2 2.3 -0.4 92 0 1 1
-3.2 2.8 -0.4 72 0 1 1
-3.2 3.3 -0.4 98 0 1 1
-3.2 4.9 -0.4 84 0 1 1
-3.2 5.4 -0.3 97 0 1 1
-3.2 5.9 -0.3 112 0 1 1
-3.1 3.9 -0.4 103 0 1 1
-3.1 4.4 -0.4 92 0 1 1
-3.1 11.3 -0.3 83 0 1 1
-3.1 11.8 0 103 0 1 1
-3.1 12.3 0.1 96 0 1 1
-3.1 12.9 0.1 88 0 1 1
-3.1 13.4 0.1 93 0 1 1
-3.1 14 0.1 98 0 1 1
-3 9.8 -0.8 69 0 1 4
-3 10.3 -0.8 92 0 1 4
-3 10.8 -0.6 95 0 1 1
-3 14.5 0 88 0 1 1
-3 15.1 0 95 0 1 1
-3 15.6 0 89 0 1 1
-3 16.1 0 101 0 1 1
-3 16.7 0 92 0 1 1
-3 17.2 0 93 0 1 1
-2.9 8.3 -0.9 85 0 1 4
-2.9 8.8 -0.9 87 0 1 4
-2.9 9.3 -0.9 88 0 1 4
-2.9 17.8 0 91 0 1 1
-2.9 18.3 0 97 0 1 1
-2.9 18.9 0 93 0 1 1
-2.9 19.4 0 96 0 1 1
-2.9 19.7 0 81 0 1 1
-2.8 6.4 -0.3 108 0 1 1
-2.8 6.8 -0.4 106 0 1 1
-2.7 2.8 -0.4 91 0 1 1
-2.7 3.3 -0.4 102 0 1 1
-2.7 4.9 -0.4 94 0 1 1
-2.7 5.4 -0.3 99 0 1 1
-2.7 5.9 -0.3 113 0 1 1
-2.6 3.8 -0.4 107 0 1 1
-2.6 4.4 -0.4 99 0 1 1
-2.6 11.8 -0.2 97 0 1 1
-2.6 12.3 0.1 83 0 1 1
-2.6 12.9 0.1 90 0 1 1
-2.5 10.8 -1.1 76 0 1 4
-2.5 11.3 -0.6 71 0 1 1
-2.5 13.4 0 95 0 1 1
-2.5 13.9 0 94 0 1 1
-2.5 14.5 0 99 0 1 1
-2.5 15 0 93 0 1 1
-2.5 15.6 0 93 0 1 1
-2.5 16.1 0 86 0 1 1
-2.4 9.8 -1.3 90 0 1 4
-2.4 10.3 -1.3 85 0 1 4
-2.4 16.7 0 98 0 1 1
-2.4 17.2 0 96 0 1 1
-2.4 17.8 0 84 0 1 1
-2.4 18.3 0 93 0 1 1
-2.4 18.9 0 94 0 1 1
-2.4 19.4 0 90 0 1 1
-2.4 19.7 -0.1 84 0 1 1
-2.2 2.7 -0.4 80 0 1 1
-2.2 3.3 -0.4 103 0 1 1
-2.2 4.8 -0.3 103 0 1 1
-2.2 5.3 -0.3 99 0 1 1
-2.2 5.8 -0.3 106 0 1 1
-2.2 6.3 -0.3 93 0 1 1
-2.1 3.8 -0.4 110 0 1 1
-2.1 4.4 -0.4 101 0 1 1
-2 11.2 -0.8 54 0 1 4
-2 11.7 -0.3 69 0 1 1
-2 12.3 0 90 0 1 1
-2 12.8 0 90 0 1 1
-2 13.4 0 100 0 1 1
-2 13.9 0 91 0 1 1
-2 14.5 0 97 0 1 1
-2 15 0 98 0 1 1
-1.9 10.2 -1.5 83 0 1 4
-1.9 10.7 -1.3 73 0 1 4
-1.9 15.6 0 92 0 1 1
-1.9 16.1 0 102 0 1 1
-1.9 16.7 0 96 0 1 1
-1.9 17.2 0 94 0 1 1
-1.9 17.8 0 83 0 1 1
-1.9 18.3 0 97 0 1 1
-1.9 18.8 -0.1 93 0 1 1
-1.9 19.4 -0.1 93 0 1 1
-1.8 19.8 -0.1 88 0 1 1
-1.7 3.2 -0.3 103 0 1 1
-1.7 4.8 -0.3 105 0 1 1
-1.7 5.3 -0.3 100 0 1 1
-1.7 5.8 -0.3 104 0 1 1
-1.7 6.3 -0.3 88 0 1 1
-1.6 3.8 -0.3 107 0 1 1
-1.6 4.3 -0.3 103 0 1 1
-1.5 11.7 -0.3 63 0 1 1
-1.5 12.3 0 83 0 1 1
-1.5 12.8 0 91 0 1 1
-1.4 10.7 -1.3 60 0 1 4
-1.4 11.2 -0.8 44 0 1 4
-1.4 13.4 0 94 0 1 1
-1.4 13.9 0 83 0 1 1
-1.4 14.5 0 101 0 1 1
-1.4 15 0 96 0 1 1
-1.4 15.6 0 94 0 1 1
-1.4 16.1 0 97 0 1 1
-1.4 16.6 0 101 0 1 1
-1.4 17.2 0 94 0 1 1
-1.4 17.7 -0.1 77 0 1 1
-1.4 18.3 -0.1 94 0 1 1
-1.3 10.2 -1.5 75 0 1 4
-1.3 18.8 -0.1 95 0 1 1
-1.3 19.4 -0.1 87 0 1 1
-1.3 19.8 -0.1 89 0 1 1
-1.2 3.7 -0.3 103 0 1 1
-1.2 4.8 -0.3 111 0 1 1
-1.2 5.3 -0.3 94 0 1 1
-1.2 5.8 -0.2 99 0 1 1
-1.2 6.3 -0.3 88 0 1 1
-1.1 4.3 -0.3 106 0 1 1
-0.9 11.2 -0.8 48 0 1 4
-0.9 11.7 -0.3 59 0 1 1
-0.9 12.2 0 78 0 1 1
-0.9 12.8 0 87 0 1 1
-0.9 13.3 0 95 0 1 1
-0.9 13.9 0 79 0 1 1
-0.9 14.4 0 101 0 1 1
-0.9 15 0 96 0 1 1
-0.9 15.5 0 93 0 1 1
-0.9 16.1 0 102 0 1 1
-0.9 16.6 -0.1 93 0 1 1
-0.8 10.2 -1.5 73 0 1 4
-0.8 10.7 -1.3 60 0 1 4
-0.8 17.2 -0.1 94 0 1 1
-0.8 17.7 -0.1 78 0 1 1
-0.8 18.3 -0.1 89 0 1 1
-0.8 18.8 -0.1 93 0 1 1
-0.8 19.4 -0.1 88 0 1 1
-0.8 19.9 -0.1 86 0 1 1
-0.7 3.7 -0.3 105 0 1 1
-0.7 4.8 -0.3 110 0 1 1
-0.7 5.3 -0.2 98 0 1 1
-0.7 5.8 -0.2 103 0 1 1
-0.7 6.2 -0.2 95 0 1 1
-0.6 4.3 -0.3 103 0 1 1
-0.4 11.7 -0.3 59 0 1 1
-0.4 12.2 0 87 0 1 1
-0.4 12.8 0 90 0 1 1
-0.4 13.3 0 95 0 1 1
-0.4 19.9 -0.1 88 0 1 1
-0.3 10.2 -1.5 75 0 1 4
-0.3 10.7 -1.3 61 0 1 4
-0.3 11.2 -0.9 55 0 1 4
-0.3 13.9 0 86 0 1 1
-0.3 14.4 0 101 0 1 1
-0.3 15 0 96 0 1 1
-0.3 15.5 0 92 0 1 1
-0.3 16.1 -0.1 97 0 1 1
-0.3 16.6 -0.1 98 0 1 1
-0.3 17.2 -0.1 87 0 1 1
-0.3 17.7 -0.1 80 0 1 1
-0.3 18.3 -0.1 88 0 1 1
-0.3 18.8 -0.1 91 0 1 1
-0.3 19.4 -0.1 90 0 1 1
-0.3 19.9 -0.1 79 0 1 1
-0.2 4.7 -0.2 111 0 1 1
-0.2 5.2 -0.2 96 0 1 1
-0.2 5.7 -0.2 104 0 1 1
-0.2 6.2 -0.2 85 0 1 1
-0.1 4.2 -0.3 87 0 1 1
0.2 11.1 -0.9 63 0 1 4
0.2 11.6 -0.4 65 0 1 1
0.2 12.2 0 92 0 1 1
0.2 12.8 0 93 0 1 1
0.2 13.3 0 92 0 1 1
0.2 13.9 0 84 0 1 1
0.2 14.4 0 91 0 1 1
0.2 15 0 93 0 1 1
0.2 15.5 -0.1 96 0 1 1
0.2 16.1 -0.1 94 0 1 1
0.2 16.6 -0.1 93 0 1 1
0.2 17.2 -0.1 92 0 1 1
0.2 17.7 -0.1 87 0 1 1
0.2 18.3 -0.1 86 0 1 1
0.2 18.8 -0.1 98 0 1 1
0.2 19.4 -0.1 92 0 1 1
0.2 19.9 -0.2 85 0 1 1
0.3 5.2 -0.2 97 0 1 1
0.3 5.7 -0.2 90 0 1 1
0.3 6.2 -0.2 95 0 1 1
0.3 10.1 -1.5 75 0 1 4
0.3 10.6 -1.3 49 0 1 4
0.4 4.7 -0.2 103 0 1 1
0.4 19.9 -0.2 85 0 1 1
0.7 12.2 0 88 0 1 1
0.7 12.7 0 92 0 1 1
0.7 13.3 0 93 0 1 1
0.7 13.8 0 83 0 1 1
0.7 14.4 0 92 0 1 1
0.7 14.9 -0.1 93 0 1 1
0.7 15.5 -0.1 92 0 1 1
0.7 16 -0.1 89 0 1 1
0.7 16.6 -0.1 96 0 1 1
0.7 17.1 -0.1 90 0 1 1
0.7 17.7 -0.1 95 0 1 1
0.7 18.2 -0.1 92 0 1 1
0.7 18.8 -0.2 93 0 1 1
0.7 19.4 -0.2 93 0 1 1
0.7 19.9 -0.2 89 0 1 1
0.8 5.2 -0.2 99 0 1 1
0.8 5.7 -0.2 98 0 1 1
0.8 6.2 -0.2 89 0 1 1
0.8 10.1 -1.5 74 0 1 4
0.8 10.6 -1.3 56 0 1 4
0.8 11.1 -0.9 70 0 1 4
0.8 11.6 -0.4 76 0 1 1
1.3 11.1 -0.9 78 0 1 4
1.3 11.6 -0.4 80 0 1 1
1.3 12.2 0 96 0 1 1
1.3 12.7 0 85 0 1 1
1.3 13.3 0 92 0 1 1
1.3 13.8 0 81 0 1 1
1.3 14.4 -0.1 88 0 1 1
1.3 14.9 -0.1 88 0 1 1
1.3 15.5 -0.1 98 0 1 1
1.3 16 -0.1 92 0 1 1
1.3 16.6 -0.1 97 0 1 1
1.3 17.1 -0.1 89 0 1 1
1.3 17.7 -0.1 102 0 1 1
1.3 18.2 -0.2 94 0 1 1
1.3 18.8 -0.2 96 0 1 1
1.3 19.3 -0.2 89 0 1 1
1.3 19.8 -0.2 90 0 1 1
1.4 10.1 -1.5 71 0 1 4
1.4 10.6 -1.3 63 0 1 4
1.8 12.1 0 87 0 1 1
1.8 12.7 0 93 0 1 1
1.8 13.2 0 92 0 1 1
1.8 13.8 -0.1 77 0 1 1
1.8 14.4 -0.1 87 0 1 1
1.8 14.9 -0.1 88 0 1 1
1.8 15.5 -0.1 101 0 1 1
1.8 16 -0.1 89 0 1 1
1.8 16.6 -0.1 90 0 1 1
1.8 17.1 -0.1 92 0 1 1
1.8 17.7 -0.2 103 0 1 1
1.8 18.2 -0.2 97 0 1 1
1.8 18.8 -0.2 100 0 1 1
1.8 19.3 -0.2 86 0 1 1
1.8 19.8 -0.2 87 0 1 1
1.9 11.6 -0.4 92 0 1 1
2.3 15.4 -0.1 98 0 1 1
2.3 16 -0.1 93 0 1 1
2.3 16.6 -0.1 87 0 1 1
2.3 17.1 -0.2 90 0 1 1
2.3 17.7 -0.2 106 0 1 1
2.3 18.2 -0.2 92 0 1 1
2.3 18.8 -0.2 92 0 1 1
2.3 19.3 -0.2 89 0 1 1
2.3 19.7 -0.2 76 0 1 1
2.4 14.9 -0.1 91 0 1 1
2.8 18.2 -0.2 95 0 1 1
2.8 18.8 -0.2 98 0 1 1
2.8 19.3 -0.2 90 0 1 1
2.8 19.7 -0.3 77 0 1 1
