2.5 -2.6 0.2 214 0 1 1
2.5 -2 0.2 205 0 1 1
3.2 -3.3 0.4 223 0 1 1
3.2 -2.6 0.3 209 0 1 1
3.2 -2 0.2 202 0 1 1
3.2 -1.3 0.2 197 0 1 1
3.2 -0.7 0.1 190 0 1 1
3.2 -0.1 0 190 0 1 1
3.2 0.6 0 195 0 1 1
3.2 1.2 -0.1 198 0 1 1
3.2 1.9 -0.1 196 0 1 1
3.3 2.5 -0.1 194 0 1 1
3.3 3.2 -0.1 191 0 1 1
3.8 -3.9 0.5 225 0 1 1
3.8 -3.3 0.4 216 0 1 1
3.8 -2.6 0.4 203 0 1 1
3.8 -2 0.3 198 0 1 1
3.8 -1.3 0.2 191 0 1 1
3.8 -0.7 0.2 193 0 1 1
3.8 -0.1 0.1 189 0 1 1
3.9 0.6 0 194 0 1 1
3.9 1.2 0 195 0 1 1
3.9 1.9 -0.1 195 0 1 1
3.9 2.5 -0.1 191 0 1 1
3.9 3.2 -0.1 193 0 1 1
3.9 3.8 -0.1 189 0 1 1
4.5 -4.6 0.6 227 0 1 1
4.5 -3.9 0.5 219 0 1 1
4.5 -3.3 0.5 208 0 1 1
4.5 -2.6 0.4 202 0 1 1
4.5 -2.6 0.5 70 0 1 2
4.5 -2 0.4 193 0 1 1
4.5 -1.3 0.3 190 0 1 1
4.5 -0.7 0.2 186 0 1 1
4.5 -0.1 0.1 188 0 1 1
4.5 0.6 0 196 0 1 1
4.5 1.2 0 198 0 1 1
4.5 1.9 -0.1 196 0 1 1
4.5 2.5 -0.1 196 0 1 1
4.5 3.2 -0.1 195 0 1 1
4.5 3.8 -0.2 193 0 1 1
4.6 -3.3 0.5 177 0 1 2
4.6 -3.3 0.6 182 0 1 2
4.6 -3.2 0.7 179 0 1 2
4.6 -3.1 0.5 206 0 1 2
4.6 -3.1 0.7 196 0 1 2
4.6 -2.9 0.5 53 0 1 2
4.6 -2.9 0.6 53 0 1 2
4.6 -2.9 0.7 137 0 1 2
4.6 -2.8 0.6 53 0 1 2
4.6 -2.8 0.7 173 0 1 2
4.6 -2.7 0.4 46 0 1 2
4.6 -2.7 0.6 53 0 1 2
4.6 -2.6 0.6 61 0 1 2
4.6 -2.6 0.7 204 0 1 2
4.6 -2.5 0.5 53 0 1 2
4.6 -2.5 0.6 48 0 1 2
4.6 -2.5 0.7 188 0 1 2
4.6 -2.4 0.6 51 0 1 2
4.6 -2.4 0.7 164 0 1 2
4.6 4.5 -0.2 192 0 1 1
4.7 -3.3 0.5 49 0 1 2
4.7 -3.3 0.7 214 0 1 2
4.7 -3.2 0.7 220 0 1 2
4.7 -3.1 0.7 216 0 1 2
4.7 -2.8 0.7 129 0 1 2
4.7 -2.4 0.5 61 0 1 2
4.7 -2.4 0.6 59 0 1 2
4.7 -2.4 0.7 58 0 1 2
4.8 -3.1 0.7 221 0 1 2
4.8 -2.8 0.7 185 0 1 2
4.8 -2.8 0.8 216 0 1 2
4.8 -2.6 0.7 206 0 1 2
4.8 -2.4 0.5 58 0 1 2
4.8 -2.4 0.7 176 0 1 2
4.9 -3.2 0.7 215 0 1 2
4.9 -2.5 0.5 61 0 1 2
5 -3.2 0.7 217 0 1 2
5 -3 0.8 216 0 1 2
5 -2.8 0.8 215 0 1 2
5 -2.7 0.8 201 0 1 2
5 -2.5 0.5 169 0 1 2
5 -2.5 0.6 61 0 1 2
5 -2.5 0.7 193 0 1 2
5 -2.5 0.8 196 0 1 2
5 3.6 0 119 0 1 2
5 3.7 -0.1 52 0 1 2
5 3.8 -0.1 56 0 1 2
5 3.9 0 77 0 1 2
5.1 -5.2 0.7 227 0 1 1
5.1 -4.6 0.7 221 0 1 1
5.1 -3.9 0.6 214 0 1 1
5.1 -2 0.4 191 0 1 1
5.1 -1.3 0.3 193 0 1 1
5.1 -0.7 0.2 192 0 1 1
5.1 -0.1 0.2 191 0 1 1
5.1 0.6 0.1 196 0 1 1
5.1 1.2 0 197 0 1 1
5.1 3.5 0.1 157 0 1 2
5.1 3.7 0.1 159 0 1 2
5.1 4 0 183 0 1 2
5.1 4 0.1 164 0 1 2
5.2 1.9 0 194 0 1 1
5.2 2.5 -0.1 190 0 1 1
5.2 3.2 -0.1 190 0 1 1
5.2 3.4 -0.1 170 0 1 2
5.2 3.4 0.1 188 0 1 2
5.2 3.9 0.1 159 0 1 2
5.2 4 0.1 182 0 1 2
5.2 4.5 -0.2 194 0 1 1
5.2 5.1 -0.2 194 0 1 1
5.3 3.4 -0.1 182 0 1 2
5.3 3.4 0.1 185 0 1 2
5.3 3.7 0.1 184 0 1 2
5.3 3.8 0.1 194 0 1 2
5.3 4.1 0 155 0 1 2
5.3 4.1 0.1 185 0 1 2
5.4 3.5 0 190 0 1 2
5.4 3.5 0.1 186 0 1 2
5.4 4 0.1 197 0 1 2
5.4 4.1 0.1 190 0 1 2
5.5 3.5 0.1 195 0 1 2
5.5 3.6 0.1 198 0 1 2
5.5 3.6 0.2 188 0 1 2
5.5 4 0.1 194 0 1 2
5.6 3.6 0.1 203 0 1 2
5.6 3.7 0.2 184 0 1 2
5.6 3.8 0.1 191 0 1 2
5.6 3.9 0.1 190 0 1 2
5.8 -5.9 0.8 227 0 1 1
5.8 -5.2 0.8 220 0 1 1
5.8 -4.6 0.7 212 0 1 1
5.8 -3.9 0.7 209 0 1 1
5.8 -2.6 0.5 198 0 1 1
5.8 -2 0.4 196 0 1 1
5.8 -1.3 0.4 192 0 1 1
5.8 -0.7 0.3 190 0 1 1
5.8 -0.1 0.2 193 0 1 1
5.8 0.6 0.1 191 0 1 1
5.8 1.2 0 198 0 1 1
5.8 1.9 0 195 0 1 1
5.8 2.5 -0.1 190 0 1 1
5.8 3.2 -0.1 190 0 1 1
5.8 5.1 -0.3 192 0 1 1
5.8 5.8 -0.3 192 0 1 1
6 -2.4 0.7 134 0 1 2
6 -2.3 0.6 53 0 1 2
6 -2.3 0.7 106 0 1 2
6 -2.2 0.6 50 0 1 2
6.1 -2.5 0.7 127 0 1 2
6.1 -2.3 0.7 130 0 1 2
6.1 -2.3 0.8 72 0 1 2
6.1 -2.3 0.9 189 0 1 2
6.1 -2.2 0.7 54 0 1 2
6.1 5.7 -0.3 192 0 1 2
6.1 5.8 -0.1 56 0 1 2
6.1 5.9 -0.3 56 0 1 2
6.1 5.9 -0.1 54 0 1 2
6.1 5.9 0.1 62 0 1 2
6.1 6 -0.3 183 0 1 2
6.1 6.1 -0.3 57 0 1 2
6.1 6.1 0.2 149 0 1 2
6.2 -2.7 0.6 190 0 1 2
6.2 -2.3 0.9 177 0 1 2
6.2 -2.2 0.6 54 0 1 2
6.2 -2.2 0.9 145 0 1 2
6.2 5.6 -0.1 85 0 1 2
6.2 5.6 0.1 115 0 1 2
6.2 5.7 0.2 130 0 1 2
6.2 5.8 0.2 127 0 1 2
6.3 -2.7 0.7 176 0 1 2
6.3 -2.6 0.9 204 0 1 2
6.3 -2.3 0.9 202 0 1 2
6.3 -2.2 0.9 195 0 1 2
6.3 5.4 -0.1 172 0 1 2
6.3 5.4 0.2 172 0 1 2
6.3 5.5 -0.1 92 0 1 2
6.4 -6.5 0.9 228 0 1 1
6.4 -5.9 0.9 220 0 1 1
6.4 -5.2 0.8 210 0 1 1
6.4 -4.6 0.8 210 0 1 1
6.4 -3.9 0.7 206 0 1 1
6.4 -3.3 0.6 203 0 1 1
6.4 -2.7 0.9 203 0 1 2
6.4 -2.4 0.9 204 0 1 2
6.4 -2.3 0.9 208 0 1 2
6.4 -2.1 0.6 49 0 1 2
6.4 -2.1 0.9 180 0 1 2
6.4 -2 0.5 194 0 1 1
6.4 -1.3 0.4 195 0 1 1
6.4 -0.7 0.3 191 0 1 1
6.4 -0.1 0.2 190 0 1 1
6.4 0.6 0.1 193 0 1 1
6.4 1.2 0.1 195 0 1 1
6.4 1.9 0 86 0 1 1
6.4 2.5 -0.1 138 0 1 1
6.4 3.2 -0.1 189 0 1 1
6.4 3.8 -0.2 188 0 1 1
6.4 5.1 -0.3 191 0 1 1
6.4 5.4 -0.1 184 0 1 2
6.4 5.4 0.2 185 0 1 2
6.4 6.3 0.2 188 0 1 2
6.5 5.4 -0.2 183 0 1 2
6.5 5.8 0.2 200 0 1 2
6.5 5.9 0.2 197 0 1 2
6.5 6.5 0.1 193 0 1 2
6.5 6.6 0.1 186 0 1 2
6.6 -2.1 0.7 54 0 1 2
6.6 -2 0.5 54 0 1 2
6.6 5.4 -0.2 181 0 1 2
6.6 5.6 0.2 192 0 1 2
6.6 5.9 0.2 194 0 1 2
6.6 6.4 0.1 188 0 1 2
6.6 6.5 0.1 189 0 1 2
6.6 6.6 0.1 185 0 1 2
6.7 -2.7 0.9 204 0 1 2
6.7 -2.1 0.9 194 0 1 2
6.7 -2 0.7 54 0 1 2
6.7 5.3 -0.1 178 0 1 2
6.7 5.3 0.2 188 0 1 2
6.7 5.4 -0.2 192 0 1 2
6.7 5.4 -0.1 196 0 1 2
6.7 6.3 0.1 186 0 1 2
6.7 6.4 0.1 185 0 1 2
6.8 -2.4 0.9 203 0 1 2
6.8 -2 0.8 131 0 1 2
6.8 -2 0.9 187 0 1 2
6.8 5.4 0.1 196 0 1 2
6.8 5.9 0.1 196 0 1 2
6.8 5.9 0.2 198 0 1 2
6.8 6.1 0.2 185 0 1 2
6.9 -2.6 0.9 207 0 1 2
6.9 -2.3 0.9 199 0 1 2
6.9 -1.9 0.7 55 0 1 2
6.9 5.4 0 188 0 1 2
6.9 5.4 0.1 192 0 1 2
6.9 5.4 0.2 193 0 1 2
6.9 5.6 0.1 193 0 1 2
6.9 5.7 0.1 194 0 1 2
7 -7.1 0.9 227 0 1 1
7 -6.5 0.9 222 0 1 1
7 -5.9 0.9 215 0 1 1
7 -5.2 0.9 211 0 1 1
7 -4.6 0.8 204 0 1 1
7 -3.9 0.7 206 0 1 1
7 -3.3 0.7 201 0 1 1
7 -2.6 0.9 200 0 1 2
7 -1.9 0.5 198 0 1 2
7 -1.9 0.8 183 0 1 2
7 -1.3 0.4 190 0 1 1
7 -0.7 0.3 193 0 1 1
7 0.3 1.2 47 0 1 3
7 0.3 1.4 52 0 1 3
7.1 -2.2 0.8 203 0 1 2
7.1 -1.9 0.6 49 0 1 2
7.1 -1.9 0.7 87 0 1 2
7.1 -0.1 0.3 191 0 1 1
7.1 0.2 1.1 47 0 1 3
7.1 0.2 1.4 55 0 1 3
7.1 0.3 0.3 47 0 1 3
7.1 0.3 0.6 48 0 1 3
7.1 0.3 0.9 48 0 1 3
7.1 0.4 1.6 139 0 1 3
7.1 0.5 0.5 43 0 1 3
7.1 0.5 0.8 51 0 1 3
7.1 0.5 1.1 49 0 1 3
7.1 0.6 0.2 162 0 1 1
7.1 0.6 1.2 48 0 1 3
7.1 0.6 1.7 120 0 1 3
7.1 0.7 0.4 49 0 1 3
7.1 0.7 0.8 48 0 1 3
7.1 0.7 1.2 47 0 1 3
7.1 0.7 1.7 185 0 1 3
7.1 0.8 0.9 50 0 1 3
7.1 0.8 1.3 53 0 1 3
7.1 1.2 0.1 64 0 1 1
7.1 1.9 0 63 0 1 1
7.1 2.5 0 63 0 1 1
7.1 3.2 -0.1 166 0 1 1
7.1 3.8 -0.2 190 0 1 1
7.1 4.5 -0.2 186 0 1 1
7.1 5.1 -0.3 189 0 1 1
7.2 -1.9 0.8 172 0 1 2
7.2 0 0.5 58 0 1 3
7.2 0.1 0.8 57 0 1 3
7.2 0.1 1.1 63 0 1 3
7.2 0.2 1.6 177 0 1 3
7.2 0.3 1.7 188 0 1 3
7.2 0.4 1.7 197 0 1 3
7.2 0.9 0.5 54 0 1 3
7.2 1 0.5 54 0 1 3
7.2 1 0.9 54 0 1 3
7.2 1 1 55 0 1 3
7.2 1.1 0.4 50 0 1 3
7.2 1.1 0.8 54 0 1 3
7.2 1.2 0.2 49 0 1 3
7.2 1.2 0.6 52 0 1 3
7.2 1.2 0.8 99 0 1 3
7.3 -1.9 0.6 153 0 1 2
7.3 -1.9 0.8 185 0 1 2
7.3 -0.2 0.5 66 0 1 3
7.3 -0.1 0.8 63 0 1 3
7.3 -0.1 1.4 90 0 1 3
7.3 -0.1 1.5 152 0 1 3
7.3 0.9 1.7 115 0 1 3
7.3 1 1.3 56 0 1 3
7.3 1.1 1 58 0 1 3
7.3 1.2 0.2 55 0 1 3
7.3 1.2 0.9 58 0 1 3
7.3 1.3 0.2 55 0 1 3
7.3 1.3 0.4 48 0 1 3
7.3 1.3 0.6 53 0 1 3
7.3 1.3 0.7 64 0 1 3
7.4 -2.4 0.8 202 0 1 2
7.4 -2.1 0.8 195 0 1 2
7.4 -0.3 1.1 66 0 1 3
7.4 0.1 1.7 188 0 1 3
7.4 0.7 1.7 193 0 1 3
7.4 1.2 0.8 92 0 1 3
7.4 1.2 1.1 52 0 1 3
7.4 1.3 0.8 113 0 1 3
7.4 1.4 0.5 52 0 1 3
7.4 1.4 0.8 95 0 1 3
7.5 -0.5 0.8 98 0 1 3
7.5 -0.5 1.4 150 0 1 3
7.5 -0.4 0.8 82 0 1 3
7.5 -0.4 1.5 154 0 1 3
7.5 -0.3 1.6 209 0 1 3
7.5 -0.2 1.6 192 0 1 3
7.5 -0.1 1.8 201 0 1 3
7.5 0.4 1.7 198 0 1 3
7.5 1.1 1.7 146 0 1 3
7.5 1.2 1.3 57 0 1 3
7.5 1.3 0.9 95 0 1 3
7.5 1.3 1 56 0 1 3
7.5 1.4 0.2 53 0 1 3
7.5 1.4 0.6 57 0 1 3
7.5 1.4 0.9 131 0 1 3
7.5 1.5 0.8 87 0 1 3
7.6 0.6 1.7 197 0 1 3
7.6 0.9 1.7 193 0 1 3
7.6 1.4 1 56 0 1 3
7.6 1.4 1.3 53 0 1 3
7.6 1.5 0.3 53 0 1 3
7.6 1.5 0.4 54 0 1 3
7.6 1.5 0.6 58 0 1 3
7.6 1.5 0.7 55 0 1 3
7.6 1.5 0.9 125 0 1 3
7.6 1.6 0.9 61 0 1 3
7.7 -7.8 0.9 228 0 1 1
7.7 -7.1 1 224 0 1 1
7.7 -6.5 0.9 217 0 1 1
7.7 -5.9 0.9 208 0 1 1
7.7 -5.2 0.9 209 0 1 1
7.7 -4.6 0.8 199 0 1 1
7.7 -3.9 0.8 203 0 1 1
7.7 -3.3 0.7 202 0 1 1
7.7 -2 0.5 197 0 1 1
7.7 -1.3 0.4 194 0 1 1
7.7 -0.7 0.3 189 0 1 1
7.7 -0.7 0.8 109 0 1 3
7.7 -0.3 1.6 219 0 1 3
7.7 -0.1 1.7 219 0 1 3
7.7 -0.1 1.8 220 0 1 3
7.7 0.3 1.8 195 0 1 3
7.7 1.3 1.6 174 0 1 3
7.7 1.4 0.9 117 0 1 3
7.7 1.6 0.1 59 0 1 3
7.7 1.6 0.7 56 0 1 3
7.7 1.9 0 63 0 1 1
7.7 2.5 0 59 0 1 1
7.7 3.2 -0.1 127 0 1 1
7.7 3.8 -0.2 192 0 1 1
7.7 4.5 -0.2 188 0 1 1
7.7 5.1 -0.3 189 0 1 1
7.7 5.8 -0.4 189 0 1 1
7.8 -0.8 1.3 129 0 1 3
7.8 -0.7 1.3 180 0 1 3
7.8 1.5 1.3 59 0 1 3
7.8 1.5 1.6 122 0 1 3
7.8 1.6 0.1 63 0 1 3
7.8 1.6 0.3 62 0 1 3
7.8 1.6 0.4 63 0 1 3
7.8 1.6 0.9 137 0 1 3
7.9 -0.9 0.7 130 0 1 3
7.9 -0.8 1.3 220 0 1 3
7.9 -0.2 1.7 219 0 1 3
7.9 -0.2 1.8 204 0 1 3
7.9 0.5 1.7 193 0 1 3
7.9 1.4 1.7 189 0 1 3
7.9 1.7 0.6 62 0 1 3
8 -1 0.6 167 0 1 3
8 -1 1.1 168 0 1 3
8 -0.9 0.6 143 0 1 3
8 -0.1 1.8 183 0 1 3
8 0.1 1.8 190 0 1 3
8 1.4 1.7 190 0 1 3
8 1.6 0.9 179 0 1 3
8 1.7 0.2 58 0 1 3
8 1.7 0.3 61 0 1 3
8.1 -1.1 1 156 0 1 3
8.1 -1.1 1.1 212 0 1 3
8.1 -0.7 1.4 218 0 1 3
8.1 0 1.8 175 0 1 3
8.1 0.2 1.8 185 0 1 3
8.1 1.1 1.7 193 0 1 3
8.1 1.5 1.6 157 0 1 3
8.1 1.6 0.9 71 0 1 3
8.1 1.6 1 69 0 1 3
8.1 1.7 0.9 165 0 1 3
8.1 1.8 0.8 63 0 1 3
8.2 -1.1 0.7 167 0 1 3
8.2 -1.1 1.1 174 0 1 3
8.2 -0.3 1.7 210 0 1 3
8.2 0.4 1.8 199 0 1 3
8.2 1.6 1.4 62 0 1 3
8.2 1.8 0 66 0 1 3
8.2 1.8 0.2 58 0 1 3
8.2 1.8 0.3 60 0 1 3
8.2 1.8 0.5 57 0 1 3
8.3 -8.4 0.9 231 0 1 1
8.3 -7.8 1 225 0 1 1
8.3 -7.1 1 218 0 1 1
8.3 -6.5 1 212 0 1 1
8.3 -5.9 0.9 208 0 1 1
8.3 -5.2 0.9 207 0 1 1
8.3 -4.6 0.8 204 0 1 1
8.3 -3.9 0.8 207 0 1 1
8.3 -3.3 0.7 197 0 1 1
8.3 -2 0.5 192 0 1 1
8.3 -1.3 0.4 191 0 1 1
8.3 -1.1 0.7 170 0 1 3
8.3 -1.1 1.1 201 0 1 3
8.3 1 1.7 194 0 1 3
8.3 1.6 1.7 160 0 1 3
8.3 1.7 0.9 169 0 1 3
8.3 1.9 0 74 0 1 1
8.3 2.5 0 120 0 1 1
8.3 3.2 -0.1 191 0 1 1
8.3 3.8 -0.2 188 0 1 1
8.3 4.5 -0.2 190 0 1 1
8.3 5.1 -0.3 187 0 1 1
8.3 5.8 -0.4 186 0 1 1
8.3 6.4 -0.4 187 0 1 1
8.4 -1.2 1.1 218 0 1 3
8.4 -1.1 0.7 172 0 1 3
8.4 -0.7 1.4 218 0 1 3
8.4 0.2 1.8 170 0 1 3
8.4 1.6 1.4 63 0 1 3
8.4 1.9 0.1 84 0 1 3
8.4 1.9 0.2 155 0 1 3
8.4 1.9 0.3 134 0 1 3
8.4 1.9 0.5 166 0 1 3
8.4 1.9 0.7 183 0 1 3
8.4 1.9 0.8 145 0 1 3
8.5 -1.2 1.1 195 0 1 3
8.5 0.4 1.8 187 0 1 3
8.5 1.6 1.5 68 0 1 3
8.5 1.7 1.1 63 0 1 3
8.6 -1.2 0.5 170 0 1 3
8.6 -1.2 0.7 193 0 1 3
8.6 -1.2 0.8 168 0 1 3
8.6 -1.2 0.9 188 0 1 3
8.6 -1.2 1.1 202 0 1 3
8.6 -0.8 1.4 223 0 1 3
8.6 -0.3 1.7 157 0 1 3
8.6 0.8 1.7 194 0 1 3
8.6 1.7 1.3 68 0 1 3
8.7 1.7 0.9 167 0 1 3
8.7 1.7 1.1 65 0 1 3
8.8 0.5 1.8 178 0 1 3
8.8 1.5 1.7 128 0 1 3
8.8 1.7 1.4 65 0 1 3
8.9 -1.1 1.3 173 0 1 3
8.9 -0.6 1.6 220 0 1 3
8.9 0.9 1.7 192 0 1 3
8.9 6.4 -0.4 187 0 1 1
9 -9.1 0.9 231 0 1 1
9 -8.4 0.9 226 0 1 1
9 -7.8 0.9 220 0 1 1
9 -7.1 1 214 0 1 1
9 -6.5 0.9 209 0 1 1
9 -5.9 0.9 209 0 1 1
9 -5.2 0.9 200 0 1 1
9 -4.6 0.8 201 0 1 1
9 -3.9 0.8 207 0 1 1
9 -3.3 0.7 200 0 1 1
9 -2.6 0.6 191 0 1 1
9 -2 0.5 196 0 1 1
9 -1.3 0.4 191 0 1 1
9 -0.6 1.6 208 0 1 3
9 0.8 1.7 171 0 1 3
9 1.3 1.7 117 0 1 3
9 2.5 0 198 0 1 1
9 3.2 -0.1 192 0 1 1
9 3.8 -0.2 190 0 1 1
9 4.5 -0.2 188 0 1 1
9 5.1 -0.3 188 0 1 1
9 5.8 -0.4 190 0 1 1
9.1 1.2 1.7 181 0 1 3
9.2 -0.9 1.4 181 0 1 3
9.2 1.1 1.7 170 0 1 3
9.3 -0.8 1.5 174 0 1 3
9.4 -0.8 1.6 212 0 1 3
9.5 9.6 -0.7 188 0 1 1
9.6 -9.1 0.9 223 0 1 1
9.6 -8.4 0.9 216 0 1 1
9.6 -7.8 0.9 217 0 1 1
9.6 -7.1 0.9 209 0 1 1
9.6 -6.5 0.9 210 0 1 1
9.6 -5.9 0.9 204 0 1 1
9.6 -5.2 0.9 206 0 1 1
9.6 -4.6 0.8 202 0 1 1
9.6 -3.9 0.7 206 0 1 1
9.6 -3.3 0.7 203 0 1 1
9.6 -2.6 0.6 197 0 1 1
9.6 -2 0.5 191 0 1 1
9.6 -1.3 0.4 192 0 1 1
9.6 2.5 0 200 0 1 1
9.6 3.2 -0.1 192 0 1 1
9.6 3.8 -0.2 188 0 1 1
9.6 4.5 -0.2 191 0 1 1
9.6 5.1 -0.3 188 0 1 1
9.6 5.8 -0.4 188 0 1 1
9.6 6.4 -0.4 189 0 1 1
9.6 7 -0.5 188 0 1 1
10.2 4.5 -0.2 185 0 1 1
10.2 4.9 -0.3 186 0 1 2
10.2 4.9 -0.1 171 0 1 2
10.2 5 -0.1 52 0 1 2
10.2 5.3 -0.3 174 0 1 2
10.2 5.3 -0.1 54 0 1 2
10.2 5.8 -0.3 185 0 1 1
10.2 6.4 -0.4 190 0 1 1
10.2 7 -0.5 187 0 1 1
10.2 7.7 -0.6 187 0 1 1
10.2 8.3 -0.6 197 0 1 1
10.2 9 -0.7 186 0 1 1
10.2 9.6 -0.7 189 0 1 1
10.2 10.3 -0.7 189 0 1 1
10.3 -9.7 0.8 226 0 1 1
10.3 -8.4 0.9 214 0 1 1
10.3 -7.8 0.9 214 0 1 1
10.3 -7.1 0.9 208 0 1 1
10.3 -6.5 0.9 204 0 1 1
10.3 -5.9 0.9 203 0 1 1
10.3 -5.2 0.8 209 0 1 1
10.3 -4.6 0.8 200 0 1 1
10.3 -3.9 0.7 207 0 1 1
10.3 -3.3 0.6 201 0 1 1
10.3 -2.6 0.6 199 0 1 1
10.3 -2 0.5 193 0 1 1
10.3 2.5 0 197 0 1 1
10.3 3.2 -0.1 193 0 1 1
10.3 3.8 -0.1 192 0 1 1
10.3 4.9 0 188 0 1 2
10.3 4.9 0.1 185 0 1 2
10.3 5 0 170 0 1 2
10.3 5.1 0 67 0 1 2
10.3 5.1 0.1 148 0 1 2
10.3 5.3 0 54 0 1 2
10.3 5.3 0.1 159 0 1 2
10.3 5.4 -0.2 132 0 1 2
10.4 4.9 0 209 0 1 2
10.4 4.9 0.1 195 0 1 2
10.4 5 0.1 187 0 1 2
10.4 5 0.2 189 0 1 2
10.4 5.2 0.2 188 0 1 2
10.4 5.3 0.2 180 0 1 2
10.4 5.4 0.1 121 0 1 2
10.4 5.5 -0.3 156 0 1 2
10.5 4.8 -0.3 188 0 1 2
10.5 5 0.2 196 0 1 2
10.5 5.1 0.2 186 0 1 2
10.5 5.2 0.2 186 0 1 2
10.6 4.8 -0.2 186 0 1 2
10.6 4.8 -0.1 198 0 1 2
10.6 5 0.1 193 0 1 2
10.6 5 0.2 199 0 1 2
10.7 4.8 -0.1 204 0 1 2
10.7 4.9 0 199 0 1 2
10.7 4.9 0.1 197 0 1 2
10.8 4.8 -0.3 188 0 1 2
10.8 4.8 -0.2 187 0 1 2
10.8 4.8 -0.1 203 0 1 2
10.8 4.9 -0.1 213 0 1 2
10.8 7 -0.5 186 0 1 1
10.8 7.7 -0.5 186 0 1 1
10.8 8.3 -0.6 140 0 1 1
10.8 9 -0.6 184 0 1 1
10.8 9.6 -0.7 173 0 1 1
10.8 10.3 -0.7 186 0 1 1
10.8 10.9 -0.7 187 0 1 1
10.9 -8.4 0.8 214 0 1 1
10.9 -7.8 0.8 208 0 1 1
10.9 -7.1 0.8 204 0 1 1
10.9 -6.5 0.8 203 0 1 1
10.9 -5.9 0.8 197 0 1 1
10.9 -5.2 0.8 202 0 1 1
10.9 -4.6 0.7 199 0 1 1
10.9 -3.9 0.7 209 0 1 1
10.9 -3.3 0.6 201 0 1 1
10.9 -2.6 0.5 197 0 1 1
10.9 -2 0.4 195 0 1 1
10.9 2.5 0 199 0 1 1
10.9 3.2 -0.1 194 0 1 1
10.9 3.8 -0.1 191 0 1 1
10.9 4.5 -0.2 186 0 1 1
10.9 4.8 -0.2 191 0 1 2
10.9 4.9 -0.1 204 0 1 2
10.9 5.8 -0.3 185 0 1 1
10.9 6.4 -0.4 189 0 1 1
10.9 8.1 -0.5 107 0 1 3
10.9 8.4 -0.5 45 0 1 3
10.9 8.6 -0.3 45 0 1 3
11 8.2 0.1 174 0 1 3
11 8.9 -0.3 47 0 1 3
11 9.2 -0.3 41 0 1 3
11.1 8.3 0.3 152 0 1 3
11.1 8.5 0.2 44 0 1 3
11.1 8.6 0.4 120 0 1 3
11.1 8.8 0.4 142 0 1 3
11.1 9.3 -0.2 44 0 1 3
11.2 -6.1 0.8 145 0 1 3
11.2 8.1 0.3 182 0 1 3
11.2 8.4 0.4 167 0 1 3
11.2 9 0.4 129 0 1 3
11.2 9.3 0.4 105 0 1 3
11.3 -6.1 0.9 148 0 1 3
11.3 -6 0.9 96 0 1 3
11.3 -6 1 118 0 1 3
11.3 -5.9 0.8 201 0 1 3
11.3 -5.9 1 64 0 1 3
11.3 -5.9 1.1 198 0 1 3
11.3 -5.6 0.9 48 0 1 3
11.3 8.2 0.4 187 0 1 3
11.3 8.3 0.6 169 0 1 3
11.3 8.5 0.6 150 0 1 3
11.3 8.8 0.6 144 0 1 3
11.3 10.3 -0.5 48 0 1 3
11.4 -6.5 0.8 189 0 1 3
11.4 -6.4 0.9 181 0 1 3
11.4 -6.3 1.1 163 0 1 3
11.4 -6.2 1.1 165 0 1 3
11.4 -6.1 1.2 191 0 1 3
11.4 -5.6 1.1 172 0 1 3
11.4 -5.3 0.9 48 0 1 3
11.4 -5.1 0.7 190 0 1 3
11.4 8 0.5 190 0 1 3
11.4 8.1 0.6 180 0 1 3
11.4 8.2 0.7 154 0 1 3
11.5 -6.5 1.1 190 0 1 3
11.5 -6.4 1.2 174 0 1 3
11.5 -6.3 1.3 188 0 1 3
11.5 -5.8 1.2 204 0 1 3
11.5 -5.3 1.2 113 0 1 3
11.5 -5.2 1 53 0 1 3
11.5 -5 0.9 52 0 1 3
11.5 -4.9 0.7 48 0 1 3
11.5 3.8 -0.1 190 0 1 1
11.5 4.5 -0.2 187 0 1 1
11.5 5.1 -0.2 189 0 1 1
11.5 6.4 -0.4 187 0 1 1
11.5 7 -0.4 190 0 1 1
11.5 7.7 -0.5 182 0 1 1
11.5 10.3 0.1 48 0 1 3
11.5 10.9 -0.7 79 0 1 1
11.5 11.6 -0.7 119 0 1 1
11.6 -7.8 0.8 203 0 1 1
11.6 -7.1 0.8 203 0 1 1
11.6 -6.5 1.2 193 0 1 3
11.6 -6.5 1.3 191 0 1 3
11.6 -6.4 1.3 181 0 1 3
11.6 -5.4 1.3 197 0 1 3
11.6 -5 1.2 178 0 1 3
11.6 -5 1.3 197 0 1 3
11.6 -4.9 1.1 51 0 1 3
11.6 -4.8 1.1 47 0 1 3
11.6 -4.7 0.9 51 0 1 3
11.6 -4.7 1.3 144 0 1 3
11.6 -4.6 0.7 197 0 1 1
11.6 -4.5 0.9 54 0 1 3
11.6 -3.9 0.6 209 0 1 1
11.6 -3.3 0.5 204 0 1 1
11.6 -2.6 0.5 195 0 1 1
11.6 -2 0.4 198 0 1 1
11.6 3.2 -0.1 193 0 1 1
11.6 7.8 0.1 184 0 1 3
11.6 8 0.8 184 0 1 3
11.6 8.1 0.9 154 0 1 3
11.6 10.2 0.6 108 0 1 3
11.7 -6.5 1.3 194 0 1 3
11.7 -6.5 1.4 200 0 1 3
11.7 -5.5 1.4 194 0 1 3
11.7 -4.7 1.3 146 0 1 3
11.7 -4.6 1.3 67 0 1 3
11.7 -4.5 1.2 58 0 1 3
11.7 -4.4 0.8 52 0 1 3
11.7 -4.4 1.2 53 0 1 3
11.7 9.7 0.8 154 0 1 3
11.8 -6.7 1.1 187 0 1 3
11.8 -6.5 1.5 206 0 1 3
11.8 -5.4 1.4 196 0 1 3
11.8 -4.6 1.4 186 0 1 3
11.8 -4.5 1.3 62 0 1 3
11.8 -4.5 1.4 120 0 1 3
11.8 -4.4 1.3 56 0 1 3
11.8 -4.3 1.4 100 0 1 3
11.8 7.8 0.7 194 0 1 3
11.8 8 1.1 177 0 1 3
11.8 11.2 -0.2 51 0 1 3
11.9 -5.4 1.5 196 0 1 3
11.9 -5 1.5 192 0 1 3
11.9 -4.2 1.1 52 0 1 3
11.9 7.9 1.1 166 0 1 3
11.9 11.2 0.3 50 0 1 3
11.9 11.5 -0.6 57 0 1 3
12 -6.8 1.4 196 0 1 3
12 -6.5 1.6 204 0 1 3
12 -6.1 1.6 200 0 1 3
12 -5.7 1.6 194 0 1 3
12 -4.2 1.4 55 0 1 3
12 -4.2 1.5 132 0 1 3
12 7.8 0.9 193 0 1 3
12 9 1.1 155 0 1 3
12 11.2 0.8 93 0 1 3
12 11.5 -0.1 54 0 1 3
12.1 -6.8 1.5 207 0 1 3
12.1 -6.7 1.5 206 0 1 3
12.1 -6.5 1.7 208 0 1 3
12.1 -4.9 1.6 189 0 1 3
12.1 -3.7 0.5 202 0 1 3
12.1 7 -0.4 189 0 1 1
12.1 7.8 1.2 193 0 1 3
12.1 8.9 1.3 171 0 1 3
12.1 12.2 -0.6 63 0 1 1
12.2 -7.8 0.7 201 0 1 1
12.2 -7.1 0.7 206 0 1 1
12.2 -6.7 1.7 209 0 1 3
12.2 -6.6 1.8 215 0 1 3
12.2 -6.5 1.8 208 0 1 3
12.2 -6.1 1.8 202 0 1 3
12.2 -5.7 1.8 199 0 1 3
12.2 -5.5 1.7 196 0 1 3
12.2 -5.2 1.7 197 0 1 3
12.2 -4.4 1.7 190 0 1 3
12.2 -4 1.6 147 0 1 3
12.2 -3.3 0.5 187 0 1 1
12.2 -2.6 0.4 192 0 1 1
12.2 -2 0.4 195 0 1 1
12.2 3.2 -0.1 191 0 1 1
12.2 3.8 -0.1 190 0 1 1
12.2 4.5 -0.2 188 0 1 1
12.2 5.1 -0.2 187 0 1 1
12.2 6.4 -0.3 187 0 1 1
12.2 7.7 1.2 185 0 1 3
12.2 8 1.5 132 0 1 3
12.2 10.5 1.1 109 0 1 3
12.3 -6.7 1.7 211 0 1 3
12.3 -6.6 1.8 222 0 1 3
12.3 -6.2 1.8 221 0 1 3
12.3 -5.3 1.8 198 0 1 3
12.3 -5 1.8 197 0 1 3
12.3 -4.8 1.8 194 0 1 3
12.3 -4.1 1.8 182 0 1 3
12.3 -4 1.8 141 0 1 3
12.3 -3.9 1.6 52 0 1 3
12.3 -3.8 1.4 56 0 1 3
12.3 -3.8 1.6 148 0 1 3
12.3 7.6 1.2 198 0 1 3
12.3 8.8 1.3 183 0 1 3
12.4 -7.1 1.1 155 0 1 3
12.4 -6.9 1.7 206 0 1 3
12.4 -6.8 1.8 171 0 1 3
12.4 -6.7 1.8 160 0 1 3
12.4 -6.3 1.9 216 0 1 3
12.4 -5.8 1.9 212 0 1 3
12.4 -5.6 1.9 199 0 1 3
12.4 -5.5 1.9 194 0 1 3
12.4 -5.3 1.9 191 0 1 3
12.4 -4.7 1.9 188 0 1 3
12.4 -4.4 1.8 186 0 1 3
12.4 -4.1 1.9 173 0 1 3
12.4 -3.9 1.7 191 0 1 3
12.4 -3.8 1.6 140 0 1 3
12.4 -3.7 1.4 59 0 1 3
12.4 -3.7 1.5 147 0 1 3
12.4 -3.6 1.1 52 0 1 3
12.4 8.2 1.7 190 0 1 3
12.5 -7 1.7 205 0 1 3
12.5 -6.1 1.9 191 0 1 3
12.5 -5.4 2 185 0 1 3
12.5 -5 2 187 0 1 3
12.5 -4.9 1.9 193 0 1 3
12.5 -4.4 1.9 189 0 1 3
12.5 -4.1 1.9 152 0 1 3
12.5 -4 1.9 179 0 1 3
12.5 -3.6 1.4 57 0 1 3
12.5 -3.6 1.5 150 0 1 3
12.5 -3.5 1.2 61 0 1 3
12.5 -3.5 1.3 63 0 1 3
12.5 -3.4 1.2 57 0 1 3
12.5 -3.2 0.5 185 0 1 3
12.5 7.8 1.5 205 0 1 3
12.5 8.1 1.7 204 0 1 3
12.5 8.3 1.9 194 0 1 3
12.5 9.8 1.5 183 0 1 3
12.6 -7.2 1.2 173 0 1 3
12.6 -7.1 1.8 174 0 1 3
12.6 -7 1.8 205 0 1 3
12.6 -6.9 1.9 205 0 1 3
12.6 -6.7 2 195 0 1 3
12.6 -6.2 2.1 187 0 1 3
12.6 -6 2.1 159 0 1 3
12.6 -5.8 2 183 0 1 3
12.6 -4.6 2 187 0 1 3
12.6 -4.4 2 179 0 1 3
12.6 -4.1 2 166 0 1 3
12.6 -4 1.9 111 0 1 3
12.6 -3.5 1.2 62 0 1 3
12.6 -3.5 1.3 129 0 1 3
12.6 -3.5 1.4 138 0 1 3
12.6 -3.4 1.2 60 0 1 3
12.6 -3.3 1.1 52 0 1 3
12.6 -3.2 0.8 52 0 1 3
12.6 7.5 1.3 196 0 1 3
12.6 7.8 1.5 211 0 1 3
12.6 8 1.7 208 0 1 3
12.6 8.2 1.9 205 0 1 3
12.6 8.4 2 190 0 1 3
12.6 8.5 2.1 154 0 1 3
12.6 10 1.5 171 0 1 3
12.6 11.7 1.3 63 0 1 3
12.7 -6.6 2.2 181 0 1 3
12.7 -6.4 2.2 176 0 1 3
12.7 -5.2 2.1 183 0 1 3
12.7 -4.8 2.1 182 0 1 3
12.7 -4.4 2.1 181 0 1 3
12.7 -4.2 2.1 142 0 1 3
12.7 -4.1 2 71 0 1 3
12.7 -3.4 1.1 51 0 1 3
12.7 -3.4 1.2 114 0 1 3
12.7 -3.3 0.8 52 0 1 3
12.7 -3.2 0.5 142 0 1 3
12.7 8.6 2.2 201 0 1 3
12.7 12 0.7 53 0 1 3
12.7 12.3 -0.2 55 0 1 3
12.8 -7.1 1.9 136 0 1 3
12.8 -7 2 204 0 1 3
12.8 -6.2 2.3 194 0 1 3
12.8 -6 2.3 196 0 1 3
12.8 -5.6 2.2 189 0 1 3
12.8 -4.2 2.2 160 0 1 3
12.8 -4 1.7 184 0 1 3
12.8 -3.3 0.9 52 0 1 3
12.8 3.2 -0.1 194 0 1 1
12.8 3.8 -0.1 194 0 1 1
12.8 4.5 -0.1 187 0 1 1
12.8 5.1 -0.2 188 0 1 1
12.8 5.8 -0.2 185 0 1 1
12.8 8.9 2.4 175 0 1 3
12.8 10.2 1.8 57 0 1 3
12.8 11 1.6 56 0 1 3
12.8 12.9 -0.5 58 0 1 1
12.9 -7.1 2 146 0 1 3
12.9 -6.9 2.2 204 0 1 3
12.9 -6.7 2.4 198 0 1 3
12.9 -5.4 2.3 191 0 1 3
12.9 -5 2.3 182 0 1 3
12.9 -4.6 2.3 184 0 1 3
12.9 -4.3 2.3 166 0 1 3
12.9 -3.9 1.6 174 0 1 3
12.9 -3.4 1.2 100 0 1 3
12.9 -3.3 0.4 61 0 1 1
12.9 -2.6 0.4 199 0 1 1
12.9 -2 0.3 196 0 1 1
12.9 6.9 0.1 185 0 1 3
12.9 7.2 1 203 0 1 3
12.9 9.1 2.6 193 0 1 3
12.9 11 1.6 57 0 1 3
13 -6.7 2.5 159 0 1 3
13 -6 2.5 192 0 1 3
13 -5.8 2.4 197 0 1 3
13 -5.5 2.4 192 0 1 3
13 -5.1 2.4 194 0 1 3
13 -4.7 2.3 188 0 1 3
13 -3.8 1.6 159 0 1 3
13 -3.4 1.2 100 0 1 3
13 7.1 0.8 191 0 1 3
13 9.3 2.8 181 0 1 3
13 10.6 2.2 58 0 1 3
13.1 -7.2 2.1 183 0 1 3
13.1 -7.2 2.2 192 0 1 3
13.1 -6.9 2.4 135 0 1 3
13.1 -6.6 2.6 149 0 1 3
13.1 -5.6 2.5 188 0 1 3
13.1 -5.1 2.5 187 0 1 3
13.1 -4.8 2.5 188 0 1 3
13.1 -4.4 2.4 135 0 1 3
13.1 -3.4 0.9 62 0 1 3
13.1 -3.3 0.6 79 0 1 3
13.1 8.2 1.8 212 0 1 3
13.1 8.4 2 207 0 1 3
13.1 10.6 2.4 61 0 1 3
13.2 -7.1 2.2 158 0 1 3
13.2 -6.5 2.7 146 0 1 3
13.2 -6.3 2.7 184 0 1 3
13.2 -6 2.6 182 0 1 3
13.2 -5.2 2.6 182 0 1 3
13.2 -4.9 2.6 182 0 1 3
13.2 -4.5 2.5 127 0 1 3
13.2 8.6 2.2 206 0 1 3
13.2 9.7 3.1 157 0 1 3
13.2 12.2 1.8 61 0 1 3
13.3 -6.2 2.8 180 0 1 3
13.3 -5.3 2.7 183 0 1 3
13.3 -4.1 1.7 191 0 1 3
13.3 -3.7 1.4 156 0 1 3
13.3 6.8 0.5 208 0 1 3
13.3 6.9 0.8 203 0 1 3
13.3 7.7 1.4 213 0 1 3
13.3 8 1.6 209 0 1 3
13.3 10.8 2.6 59 0 1 3
13.3 12.3 1.9 59 0 1 3
13.3 12.5 1.2 59 0 1 3
13.4 -6.9 2.5 195 0 1 3
13.4 -6.4 2.8 155 0 1 3
13.4 -6.3 2.8 181 0 1 3
13.4 -6 2.8 185 0 1 3
13.4 -5.6 2.8 184 0 1 3
13.4 -5.3 2.8 180 0 1 3
13.4 -5.1 2.8 180 0 1 3
13.4 -5 2.7 177 0 1 3
13.4 -4.8 2.8 150 0 1 3
13.4 -4.7 2.7 153 0 1 3
13.4 -4.6 2.7 123 0 1 3
13.4 6.7 0.3 192 0 1 3
13.4 10.1 3.4 195 0 1 3
13.4 10.2 3.4 165 0 1 3
13.4 10.9 3.1 53 0 1 3
13.4 12.3 2.2 57 0 1 3
13.4 12.8 0.6 56 0 1 3
13.4 13.5 -0.4 59 0 1 1
13.5 -6.3 3 158 0 1 3
13.5 -6.2 3 193 0 1 3
13.5 -6.1 2.9 182 0 1 3
13.5 -6.1 3 199 0 1 3
13.5 -6 2.9 184 0 1 3
13.5 -5.7 2.9 182 0 1 3
13.5 -5.6 2.8 183 0 1 3
13.5 -5.6 2.9 182 0 1 3
13.5 -5.2 2.9 148 0 1 3
13.5 -5 2.9 180 0 1 3
13.5 -4.9 2.8 159 0 1 3
13.5 -4.3 1.9 144 0 1 3
13.5 -3.3 0.4 121 0 1 1
13.5 -2.6 0.3 197 0 1 1
13.5 -2 0.2 194 0 1 1
13.5 3.2 -0.1 196 0 1 1
13.5 3.8 -0.1 188 0 1 1
13.5 4.5 -0.1 194 0 1 1
13.5 5.1 -0.2 189 0 1 1
13.5 5.8 -0.2 188 0 1 1
13.5 6.4 -0.3 186 0 1 1
13.5 6.5 -0.3 186 0 1 3
13.5 6.8 0.7 208 0 1 3
13.5 10 3.4 196 0 1 3
13.5 10.1 3.4 176 0 1 3
13.5 12.3 2.5 55 0 1 3
13.5 12.5 2.1 55 0 1 3
13.6 -6.6 2.8 185 0 1 3
13.6 -6.1 3 205 0 1 3
13.6 -5.7 3 147 0 1 3
13.6 -5.3 3 160 0 1 3
13.6 -5.2 2.9 138 0 1 3
13.6 -3.7 1.3 134 0 1 3
13.6 6.6 0.4 205 0 1 3
13.6 6.7 0.5 212 0 1 3
13.6 9 2.5 210 0 1 3
13.6 10.1 3.4 199 0 1 3
13.6 11.3 3.4 164 0 1 3
13.6 12.5 2.4 56 0 1 3
13.7 -6.5 2.9 186 0 1 3
13.7 -5.7 3 173 0 1 3
13.7 -5.4 3 97 0 1 3
13.7 -5.3 3 142 0 1 3
13.7 -4.4 2.1 75 0 1 3
13.7 -4 1.6 152 0 1 3
13.7 8.4 2 210 0 1 3
13.7 9.2 2.7 212 0 1 3
13.7 10.1 3.5 199 0 1 3
13.7 12.4 2.9 56 0 1 3
13.8 -5.1 2.8 183 0 1 3
13.8 -4.6 2.5 84 0 1 3
13.8 6.6 0.5 210 0 1 3
13.8 6.7 0.6 217 0 1 3
13.8 6.8 0.7 210 0 1 3
13.8 10.2 3.6 171 0 1 3
13.8 12.5 2.8 61 0 1 3
13.8 12.6 2.3 56 0 1 3
13.9 -4.3 1.8 186 0 1 3
13.9 6.6 0.5 212 0 1 3
13.9 6.7 0.6 214 0 1 3
13.9 8.1 1.7 209 0 1 3
13.9 9.6 3 211 0 1 3
13.9 11.3 3.4 162 0 1 3
13.9 12.4 3.3 68 0 1 3
13.9 13.1 1.5 61 0 1 3
13.9 13.4 0.8 60 0 1 3
13.9 13.7 -0.2 57 0 1 3
14 -4.8 2.7 133 0 1 3
14 -3.9 1.4 136 0 1 3
14 7.9 1.5 213 0 1 3
14 8.6 2.2 207 0 1 3
14 9.8 3.2 207 0 1 3
14 10.4 3.7 205 0 1 3
14 12.5 3.3 62 0 1 3
14 12.9 2.3 57 0 1 3
14.1 -3.3 0.3 198 0 1 1
14.1 -2.6 0.2 198 0 1 1
14.1 3.8 -0.1 196 0 1 1
14.1 4.5 -0.1 190 0 1 1
14.1 5.1 -0.1 188 0 1 1
14.1 5.8 -0.2 188 0 1 1
14.1 6.4 -0.2 195 0 1 1
14.1 6.6 0.5 209 0 1 3
14.1 11.2 3.5 127 0 1 3
14.1 12.7 3.3 70 0 1 3
14.1 13.1 2.1 60 0 1 3
14.1 13.1 2.2 59 0 1 3
14.1 13.3 1.7 63 0 1 3
14.1 14.1 -0.3 58 0 1 1
14.2 -4.3 1.7 134 0 1 3
14.2 6.5 0.1 189 0 1 3
14.2 10.1 3.4 207 0 1 3
14.2 11.4 3.6 113 0 1 3
14.2 12.4 3.4 114 0 1 3
14.2 12.8 3.2 66 0 1 3
14.2 12.8 3.3 63 0 1 3
14.2 12.9 2.8 70 0 1 3
14.2 12.9 3.2 63 0 1 3
14.3 7.5 1.2 209 0 1 3
14.3 8.2 1.8 211 0 1 3
14.3 10.1 3.4 208 0 1 3
14.3 10.4 3.7 212 0 1 3
14.3 11.1 3.7 148 0 1 3
14.3 12.5 3.4 157 0 1 3
14.3 12.9 3.1 63 0 1 3
14.3 13.1 2.7 65 0 1 3
14.3 13.2 2.3 59 0 1 3
14.4 6.4 0.1 197 0 1 3
14.4 9.1 2.6 208 0 1 3
14.4 10.2 3.6 210 0 1 3
14.4 13.4 2.2 68 0 1 3
14.5 -4.9 2.7 93 0 1 3
14.5 6.6 0.5 212 0 1 3
14.5 8 1.6 214 0 1 3
14.5 8.4 1.9 209 0 1 3
14.5 9.4 2.8 214 0 1 3
14.5 11.8 3.7 100 0 1 3
14.5 12.1 3.6 89 0 1 3
14.5 12.4 3.5 126 0 1 3
14.5 13.6 1.9 62 0 1 3
14.5 13.6 2 64 0 1 3
14.5 13.6 2.1 67 0 1 3
14.5 13.8 1.5 69 0 1 3
14.5 13.9 1.1 64 0 1 3
14.5 14 0.8 61 0 1 3
14.5 14.2 0 59 0 1 3
14.5 14.3 -0.2 57 0 1 3
14.6 7.2 1 210 0 1 3
14.6 9.6 3 213 0 1 3
14.6 10.5 3.8 195 0 1 3
14.6 11.2 3.7 181 0 1 3
14.6 14.1 0.5 58 0 1 3
14.7 6.5 0.4 209 0 1 3
14.7 9.9 3.2 207 0 1 3
14.7 10.6 3.9 205 0 1 3
14.7 10.7 3.9 55 0 1 3
14.7 10.7 4 200 0 1 3
14.8 -3.3 0.2 204 0 1 1
14.8 -2.6 0.2 200 0 1 1
14.8 3.8 -0.1 197 0 1 1
14.8 4.5 -0.1 193 0 1 1
14.8 5.1 -0.1 190 0 1 1
14.8 5.8 -0.1 190 0 1 1
14.8 8.8 2.2 209 0 1 3
14.8 10.3 3.6 211 0 1 3
14.8 10.7 4 193 0 1 3
14.8 10.8 4 106 0 1 3
14.8 11 3.8 176 0 1 3
14.8 11.7 3.7 111 0 1 3
14.8 14.8 -0.2 57 0 1 1
14.9 10.1 3.4 209 0 1 3
14.9 10.9 4.1 113 0 1 3
14.9 11 4 68 0 1 3
14.9 11.3 3.9 69 0 1 3
15 6.3 0.1 201 0 1 3
15 7.7 1.4 211 0 1 3
15 8.1 1.6 217 0 1 3
15 10.8 4.1 168 0 1 3
15 11.5 3.8 156 0 1 3
15.1 8.2 1.8 211 0 1 3
15.2 9.3 2.7 212 0 1 3
15.3 6.3 0.3 209 0 1 3
15.3 8.4 1.9 211 0 1 3
15.3 9.5 2.9 215 0 1 3
15.4 -3.3 0.2 204 0 1 1
15.4 -2.6 0.1 199 0 1 1
15.4 3.8 -0.1 195 0 1 1
15.4 4.5 -0.1 191 0 1 1
15.4 5.1 -0.1 189 0 1 1
15.4 5.8 -0.1 188 0 1 1
15.4 6.9 0.7 210 0 1 3
15.4 7.3 1 210 0 1 3
15.4 9.8 3.1 207 0 1 3
15.4 10.4 3.7 212 0 1 3
15.4 15.4 -0.1 59 0 1 1
15.5 6.7 0.6 208 0 1 3
15.5 7.8 1.4 211 0 1 3
15.5 8.2 1.7 214 0 1 3
15.5 10.5 3.8 215 0 1 3
15.6 9 2.4 209 0 1 3
15.6 10.2 3.5 212 0 1 3
15.6 10.6 3.9 216 0 1 3
15.6 10.8 4.1 200 0 1 3
15.7 6.9 0.7 206 0 1 3
15.7 8.4 1.8 211 0 1 3
15.9 6.2 0.1 205 0 1 3
15.9 6.3 0.3 213 0 1 3
16 7.5 1.2 208 0 1 3
16 7.9 1.5 217 0 1 3
16 8.3 1.8 210 0 1 3
16 9.4 2.8 216 0 1 3
16.1 -3.9 0.1 204 0 1 1
16.1 -3.3 0.1 204 0 1 1
16.1 -2.6 0.1 200 0 1 1
16.1 3.8 -0.1 196 0 1 1
16.1 4.5 -0.1 193 0 1 1
16.1 5.1 -0.1 193 0 1 1
16.1 5.8 -0.1 191 0 1 1
16.1 8.6 2.1 210 0 1 3
16.1 16.1 -0.1 71 0 1 1
16.2 10.4 3.6 212 0 1 3
16.3 6.5 0.4 213 0 1 3
16.3 9.6 2.9 213 0 1 3
16.3 9.9 3.2 208 0 1 3
16.3 10.6 3.9 218 0 1 3
16.3 10.8 4.1 156 0 1 3
16.4 9.2 2.5 212 0 1 3
16.4 10.5 3.8 215 0 1 3
16.4 10.7 4 210 0 1 3
16.5 6.1 -0.1 202 0 1 3
16.5 6.1 0.1 201 0 1 3
16.5 6.2 0.2 209 0 1 3
16.5 8.7 2.1 213 0 1 3
16.5 10.7 4 212 0 1 3
16.6 8.5 1.8 211 0 1 3
16.7 -3.9 0.1 204 0 1 1
16.7 -3.3 0 204 0 1 1
16.7 -2.6 0 200 0 1 1
16.7 3.8 -0.1 192 0 1 1
16.7 4.5 -0.1 191 0 1 1
16.7 5.1 -0.1 192 0 1 1
16.7 5.8 -0.1 194 0 1 1
16.7 6.2 0 204 0 1 3
16.7 10.7 4 211 0 1 3
16.7 10.8 4 206 0 1 3
16.7 16.7 -0.1 181 0 1 1
16.8 7.6 1.2 211 0 1 3
16.8 8 1.5 214 0 1 3
16.8 8.2 1.7 214 0 1 3
16.8 10.3 3.5 211 0 1 3
16.9 6.4 0.3 201 0 1 3
16.9 8.3 1.7 212 0 1 3
16.9 8.9 2.3 210 0 1 3
16.9 9.3 2.6 209 0 1 3
16.9 10.4 3.7 210 0 1 3
16.9 10.7 4 196 0 1 3
17 8.4 1.7 210 0 1 3
17 10.1 3.3 210 0 1 3
17.1 6.4 0.2 212 0 1 3
17.1 10.4 3.7 199 0 1 3
17.2 6.6 0.5 194 0 1 3
17.3 9 2.3 211 0 1 3
17.4 -16.8 0 224 0 1 1
17.4 -3.9 0 203 0 1 1
17.4 -3.3 0 201 0 1 1
17.4 -2.6 0 200 0 1 1
17.4 3.8 0 198 0 1 1
17.4 4.5 0 192 0 1 1
17.4 5.1 -0.1 191 0 1 1
17.4 5.8 -0.1 189 0 1 1
17.4 6.4 -0.1 204 0 1 1
17.4 6.8 0.6 196 0 1 3
17.4 10.2 3.4 140 0 1 3
17.4 17.4 0 174 0 1 1
17.6 6.7 0.4 187 0 1 3
17.6 6.8 0.5 200 0 1 3
17.6 7 0.6 206 0 1 3
17.6 7 0.7 194 0 1 3
17.6 7.3 1 213 0 1 3
17.6 7.7 1.2 136 0 1 3
17.6 7.9 1.4 136 0 1 3
17.6 8 1.5 205 0 1 3
17.6 10 3.2 199 0 1 3
17.7 8.2 1.6 176 0 1 3
17.7 9.1 2.4 188 0 1 3
17.7 9.4 2.7 168 0 1 3
17.8 8.3 1.6 153 0 1 3
17.8 9.8 3 200 0 1 3
17.9 8.4 1.6 202 0 1 3
17.9 8.8 2 189 0 1 3
18 -17.5 0 221 0 1 1
18 -16.8 0 218 0 1 1
18 -16.2 0 221 0 1 1
18 -3.9 0 201 0 1 1
18 -3.3 0 198 0 1 1
18 -2.6 0 203 0 1 1
18 3.8 0 192 0 1 1
18 4.5 0 193 0 1 1
18 5.1 -0.1 188 0 1 1
18 5.8 -0.1 189 0 1 1
18 6.4 -0.1 191 0 1 1
18 8.6 1.6 202 0 1 3
18 8.6 1.7 174 0 1 3
18 18 0 169 0 1 1
18.7 -18.1 0 221 0 1 1
18.7 -17.5 0 221 0 1 1
18.7 -16.8 0 217 0 1 1
18.7 -16.2 0 217 0 1 1
18.7 -4.6 0 198 0 1 1
18.7 -3.9 0 199 0 1 1
18.7 -3.3 0 197 0 1 1
18.7 -2.6 0 182 0 1 1
18.7 3.8 0 194 0 1 1
18.7 4.5 0 188 0 1 1
18.7 5.1 0 188 0 1 1
18.7 5.8 0 185 0 1 1
18.7 6.4 0 189 0 1 1
18.7 18.7 0 169 0 1 1
19.3 -18.8 0 218 0 1 1
19.3 -18.1 0 218 0 1 1
19.3 -17.5 0 217 0 1 1
19.3 -16.8 0 215 0 1 1
19.3 -16.2 0 211 0 1 1
19.3 -14.9 0 213 0 1 1
19.3 -4.6 0 195 0 1 1
19.3 -3.9 0 197 0 1 1
19.3 -3.3 0 197 0 1 1
19.3 4.5 0 195 0 1 1
19.3 5.1 0 187 0 1 1
19.3 5.8 0 187 0 1 1
19.3 6.4 0 187 0 1 1
19.3 7 0 190 0 1 1
19.3 19.3 0 170 0 1 1
20 -19.4 0 150 0 1 1
20 -18.8 0 149 0 1 1
20 -18.1 0 155 0 1 1
20 -17.5 0 149 0 1 1
20 -16.8 0 147 0 1 1
20 -16.2 0 147 0 1 1
20 -15.5 0 148 0 1 1
20 -14.9 0 147 0 1 1
20 -14.2 0 144 0 1 1
20 -13.6 0 141 0 1 1
20 -13 0 141 0 1 1
20 -12.3 0 138 0 1 1
20 -11.7 0 136 0 1 1
20 -4.6 0 133 0 1 1
20 -3.9 0 136 0 1 1
20 -3.3 0 134 0 1 1
20 4.5 0 130 0 1 1
20 5.1 0 125 0 1 1
20 5.8 0 119 0 1 1
20 6.4 0 115 0 1 1
20 7 0 119 0 1 1
20 20 0 105 0 1 1
