2.5 -2.6 0.2 214 0 1 1
3.2 -3.3 0.4 223 0 1 1
3.2 -2.6 0.3 209 0 1 1
3.2 -2 0.2 202 0 1 1
3.2 -1.3 0.2 197 0 1 1
3.2 -0.7 0.1 190 0 1 1
3.2 -0.1 0 190 0 1 1
3.2 0.6 0 195 0 1 1
3.2 1.2 -0.1 198 0 1 1
3.2 1.9 -0.1 196 0 1 1
3.3 2.5 -0.1 194 0 1 1
3.3 3.2 -0.1 191 0 1 1
3.8 -3.9 0.5 225 0 1 1
3.8 -3.3 0.4 216 0 1 1
3.8 -2.6 0.4 203 0 1 1
3.8 -2 0.3 198 0 1 1
3.8 -1.3 0.2 191 0 1 1
3.8 -0.7 0.2 193 0 1 1
3.8 -0.1 0.1 189 0 1 1
3.9 0.6 0 194 0 1 1
3.9 1.2 0 195 0 1 1
3.9 1.9 -0.1 195 0 1 1
3.9 2.5 -0.1 191 0 1 1
3.9 3.2 -0.1 193 0 1 1
3.9 3.8 -0.1 189 0 1 1
4.5 -4.6 0.6 227 0 1 1
4.5 -3.9 0.5 219 0 1 1
4.5 -3.3 0.5 208 0 1 1
4.5 -2.6 0.4 202 0 1 1
4.5 -2.6 0.5 70 0 1 2
4.5 -2 0.4 193 0 1 1
4.5 -1.3 0.3 190 0 1 1
4.5 -0.7 0.2 186 0 1 1
4.5 -0.1 0.1 188 0 1 1
4.5 0.6 0 196 0 1 1
4.5 1.2 0 198 0 1 1
4.5 1.9 -0.1 196 0 1 1
4.5 2.5 -0.1 196 0 1 1
4.5 3.2 -0.1 195 0 1 1
4.5 3.8 -0.2 193 0 1 1
4.6 -3.3 0.5 177 0 1 2
4.6 -3.3 0.6 182 0 1 2
4.6 -3.2 0.7 179 0 1 2
4.6 -3.1 0.5 206 0 1 2
4.6 -3.1 0.7 196 0 1 2
4.6 -2.9 0.5 53 0 1 2
4.6 -2.9 0.6 53 0 1 2
4.6 -2.9 0.7 137 0 1 2
4.6 -2.8 0.6 53 0 1 2
4.6 -2.8 0.7 173 0 1 2
4.6 -2.7 0.4 46 0 1 2
4.6 -2.7 0.6 53 0 1 2
4.6 -2.6 0.6 61 0 1 2
4.6 -2.6 0.7 204 0 1 2
4.6 -2.5 0.5 53 0 1 2
4.6 -2.5 0.6 48 0 1 2
4.6 -2.5 0.7 188 0 1 2
4.6 -2.4 0.6 51 0 1 2
4.6 -2.4 0.7 164 0 1 2
4.6 4.5 -0.2 192 0 1 1
4.7 -3.3 0.5 49 0 1 2
4.7 -3.3 0.7 214 0 1 2
4.7 -3.2 0.7 220 0 1 2
4.7 -3.1 0.7 216 0 1 2
4.7 -2.8 0.7 129 0 1 2
4.7 -2.4 0.5 61 0 1 2
4.7 -2.4 0.6 59 0 1 2
4.7 -2.4 0.7 58 0 1 2
4.8 -3.1 0.7 221 0 1 2
4.8 -2.8 0.7 185 0 1 2
4.8 -2.8 0.8 216 0 1 2
4.8 -2.6 0.7 206 0 1 2
4.8 -2.4 0.5 58 0 1 2
4.8 -2.4 0.7 176 0 1 2
4.9 -3.2 0.7 215 0 1 2
4.9 -2.5 0.5 61 0 1 2
5 -3.2 0.7 217 0 1 2
5 -3 0.8 216 0 1 2
5 -2.8 0.8 215 0 1 2
5 -2.7 0.8 201 0 1 2
5 -2.5 0.5 169 0 1 2
5 -2.5 0.6 61 0 1 2
5 -2.5 0.7 193 0 1 2
5 -2.5 0.8 196 0 1 2
5 3.6 0 119 0 1 2
5 3.7 -0.1 52 0 1 2
5 3.8 -0.1 56 0 1 2
5 3.9 0 77 0 1 2
5.1 -5.2 0.7 227 0 1 1
5.1 -4.6 0.7 221 0 1 1
5.1 -3.9 0.6 214 0 1 1
5.1 -2 0.4 191 0 1 1
5.1 -1.3 0.3 193 0 1 1
5.1 -0.7 0.2 192 0 1 1
5.1 -0.1 0.2 191 0 1 1
5.1 0.6 0.1 196 0 1 1
5.1 1.2 0 197 0 1 1
5.1 3.5 0.1 157 0 1 2
5.1 3.7 0.1 159 0 1 2
5.1 4 0 183 0 1 2
5.1 4 0.1 164 0 1 2
5.2 1.9 0 194 0 1 1
5.2 2.5 -0.1 190 0 1 1
5.2 3.2 -0.1 190 0 1 1
5.2 3.4 -0.1 170 0 1 2
5.2 3.4 0.1 188 0 1 2
5.2 3.9 0.1 159 0 1 2
5.2 4 0.1 182 0 1 2
5.2 4.5 -0.2 194 0 1 1
5.2 5.1 -0.2 194 0 1 1
5.3 3.4 -0.1 182 0 1 2
5.3 3.4 0.1 185 0 1 2
5.3 3.7 0.1 184 0 1 2
5.3 3.8 0.1 194 0 1 2
5.3 4.1 0 155 0 1 2
5.3 4.1 0.1 185 0 1 2
5.4 3.5 0 190 0 1 2
5.4 3.5 0.1 186 0 1 2
5.4 4 0.1 197 0 1 2
5.4 4.1 0.1 190 0 1 2
5.5 3.5 0.1 195 0 1 2
5.5 3.6 0.1 198 0 1 2
5.5 3.6 0.2 188 0 1 2
5.5 4 0.1 194 0 1 2
5.6 3.6 0.1 203 0 1 2
5.6 3.7 0.2 184 0 1 2
5.6 3.8 0.1 191 0 1 2
5.6 3.9 0.1 190 0 1 2
5.8 -5.9 0.8 227 0 1 1
5.8 -5.2 0.8 220 0 1 1
5.8 -4.6 0.7 205 0 1 1
5.8 -3.9 0.7 198 0 1 1
5.8 -2.6 0.5 198 0 1 1
5.8 -2 0.4 196 0 1 1
5.8 -1.3 0.4 192 0 1 1
5.8 -0.7 0.3 190 0 1 1
5.8 -0.1 0.2 193 0 1 1
5.8 0.6 0.1 191 0 1 1
5.8 1.2 0 198 0 1 1
5.8 1.9 0 195 0 1 1
5.8 2.5 -0.1 190 0 1 1
5.8 3.2 -0.1 190 0 1 1
5.8 5.1 -0.3 192 0 1 1
5.8 5.8 -0.3 192 0 1 1
6.1 -5.4 1.2 55 0 1 3
6.1 -5.2 1.1 56 0 1 3
6.1 -3.9 0.8 58 0 1 3
6.1 -3.9 0.9 58 0 1 3
6.1 1.6 0.2 56 0 1 2
6.1 1.7 0.2 52 0 1 2
6.1 1.7 0.4 70 0 1 2
6.1 1.9 0 103 0 1 2
6.1 1.9 0.5 180 0 1 2
6.1 2 0.1 56 0 1 2
6.1 2.1 0.4 127 0 1 2
6.1 2.2 0 50 0 1 2
6.1 2.2 0.2 63 0 1 2
6.1 2.3 0.1 53 0 1 2
6.1 2.3 0.2 111 0 1 2
6.2 -6 1.3 60 0 1 3
6.2 -5.8 1.3 59 0 1 3
6.2 -5.7 1.2 57 0 1 3
6.2 -5.5 1.2 57 0 1 3
6.2 -5.2 1.7 69 0 1 3
6.2 -4.7 1.4 63 0 1 3
6.2 -4.7 1.5 79 0 1 3
6.2 -4.5 1.1 54 0 1 3
6.2 -4.2 1.2 58 0 1 3
6.2 -4.2 1.3 85 0 1 3
6.2 -4.1 1.1 62 0 1 3
6.2 -4.1 1.2 57 0 1 3
6.2 -3.7 0.7 57 0 1 3
6.2 1.4 0.1 83 0 1 2
6.2 1.4 0.3 127 0 1 2
6.2 1.5 0.5 186 0 1 2
6.2 1.6 0.5 190 0 1 2
6.2 2.2 0.4 177 0 1 2
6.3 -6.2 1.4 59 0 1 3
6.3 -5.5 1.9 69 0 1 3
6.3 -5.4 1.8 66 0 1 3
6.3 -5.3 1.8 79 0 1 3
6.3 -5.2 1.7 77 0 1 3
6.3 -5.1 1.7 82 0 1 3
6.3 -4.9 1.7 88 0 1 3
6.3 -4.7 1.5 93 0 1 3
6.3 -4.4 1.5 138 0 1 3
6.3 -4.2 1.4 126 0 1 3
6.3 -4.1 1.3 129 0 1 3
6.3 -4 1.2 58 0 1 3
6.3 -3.9 1.1 58 0 1 3
6.3 -3.6 0.7 198 0 1 3
6.3 -3.6 0.8 50 0 1 3
6.3 1.2 0.1 180 0 1 2
6.3 1.2 0.2 169 0 1 2
6.3 1.2 0.5 184 0 1 2
6.3 2.4 -0.1 187 0 1 2
6.3 2.4 0.2 181 0 1 2
6.4 -6.3 1.7 70 0 1 3
6.4 -6 2.2 87 0 1 3
6.4 -5.8 2.1 77 0 1 3
6.4 -5.8 2.2 94 0 1 3
6.4 -5.6 2 69 0 1 3
6.4 -5.4 2 75 0 1 3
6.4 -5.3 1.9 78 0 1 3
6.4 -5.1 1.8 73 0 1 3
6.4 -5 1.8 74 0 1 3
6.4 -4.9 1.7 80 0 1 3
6.4 -4.9 1.8 190 0 1 3
6.4 -4.8 1.7 82 0 1 3
6.4 -4.8 1.8 200 0 1 3
6.4 -4.6 1.7 101 0 1 3
6.4 -4.5 1.6 132 0 1 3
6.4 -4 1.3 127 0 1 3
6.4 -3.8 1.1 60 0 1 3
6.4 -3.7 0.9 54 0 1 3
6.4 -3.6 0.9 52 0 1 3
6.4 -3.3 0.6 203 0 1 1
6.4 -2.6 0.6 196 0 1 1
6.4 -2 0.5 194 0 1 1
6.4 -1.3 0.4 195 0 1 1
6.4 -0.7 0.3 191 0 1 1
6.4 -0.1 0.2 190 0 1 1
6.4 0.6 0.1 193 0 1 1
6.4 1.2 0.1 187 0 1 2
6.4 1.2 0.5 187 0 1 2
6.4 2.1 0.4 190 0 1 2
6.4 2.4 0.2 192 0 1 2
6.4 2.5 -0.1 196 0 1 1
6.4 3.2 -0.1 189 0 1 1
6.4 3.8 -0.2 188 0 1 1
6.4 5.1 -0.3 191 0 1 1
6.4 5.8 -0.3 186 0 1 1
6.4 6.4 -0.4 187 0 1 1
6.5 -6.2 2.2 187 0 1 3
6.5 -6 2.2 141 0 1 3
6.5 -5.8 2.2 151 0 1 3
6.5 -5.5 2.2 75 0 1 3
6.5 -5.1 2 70 0 1 3
6.5 -4.8 1.8 185 0 1 3
6.5 -4.7 1.8 174 0 1 3
6.5 -3.8 1.2 139 0 1 3
6.5 -3.7 1 56 0 1 3
6.5 -3.6 0.7 195 0 1 3
6.5 1.2 0.1 188 0 1 2
6.5 1.6 0.5 208 0 1 2
6.5 1.7 0.5 194 0 1 2
6.5 2.3 0.4 193 0 1 2
6.5 2.4 0.2 157 0 1 2
6.5 2.4 0.4 159 0 1 2
6.5 2.5 0.1 177 0 1 2
6.6 -6.7 1.2 61 0 1 3
6.6 -5.7 2.4 143 0 1 3
6.6 -5.5 2.2 75 0 1 3
6.6 -3.6 1 53 0 1 3
6.6 -3.6 1.1 117 0 1 3
6.6 -3.5 0.8 48 0 1 3
6.6 1.2 0.1 186 0 1 2
6.6 1.4 0.5 197 0 1 2
6.6 2.2 0.4 176 0 1 2
6.6 2.3 0.4 194 0 1 2
6.6 2.4 0.3 173 0 1 2
6.6 2.4 0.4 193 0 1 2
6.7 -6.6 1.8 65 0 1 3
6.7 -6.3 2.4 156 0 1 3
6.7 -6.1 2.4 211 0 1 3
6.7 -5.3 2.4 94 0 1 3
6.7 -5.2 2.2 96 0 1 3
6.7 1.1 0.2 185 0 1 2
6.7 1.1 0.5 198 0 1 2
6.7 2.1 0.4 193 0 1 2
6.7 2.2 0.4 177 0 1 2
6.8 -6.4 2.5 200 0 1 3
6.8 -5.9 2.5 211 0 1 3
6.8 -5.5 2.5 188 0 1 3
6.8 -5 2.2 85 0 1 3
6.8 -4.7 1.8 205 0 1 3
6.8 -4.7 1.9 209 0 1 3
6.8 -4.5 1.8 139 0 1 3
6.8 -4.3 1.6 140 0 1 3
6.8 -3.7 1.2 150 0 1 3
6.8 1.1 0.4 186 0 1 2
6.8 1.7 0.4 203 0 1 2
6.8 1.9 0.4 197 0 1 2
6.9 -6.5 2.6 173 0 1 3
6.9 -6 2.6 213 0 1 3
6.9 -5.5 2.6 160 0 1 3
6.9 -4.6 1.8 167 0 1 3
6.9 -3.5 0.9 48 0 1 3
6.9 -3.5 1.1 117 0 1 3
6.9 1.2 0.3 184 0 1 2
6.9 1.2 0.4 197 0 1 2
6.9 1.4 0.4 199 0 1 2
6.9 1.5 0.4 199 0 1 2
7 -5.6 2.7 176 0 1 3
7 -4.9 2.1 84 0 1 3
7 -4.7 1.9 63 0 1 3
7 -3.3 0.7 189 0 1 1
7 -2.6 0.6 199 0 1 1
7 -2 0.5 195 0 1 1
7 -1.3 0.4 190 0 1 1
7 -0.7 0.3 193 0 1 1
7 6.6 1.3 46 0 1 3
7 6.6 1.5 153 0 1 3
7 7 -0.5 172 0 1 1
7.1 -6.6 2.6 199 0 1 3
7.1 -6.1 2.7 211 0 1 3
7.1 -5.1 2.3 121 0 1 3
7.1 -4.8 2.1 63 0 1 3
7.1 -4.1 1.6 131 0 1 3
7.1 -3.8 1.4 136 0 1 3
7.1 -3.7 1.3 143 0 1 3
7.1 -3.4 0.9 50 0 1 3
7.1 -0.1 0.3 191 0 1 1
7.1 0.6 0.2 194 0 1 1
7.1 3.2 -0.1 190 0 1 1
7.1 3.8 -0.2 190 0 1 1
7.1 4.5 -0.2 186 0 1 1
7.1 5.1 -0.3 189 0 1 1
7.1 5.8 -0.4 191 0 1 1
7.1 6.4 -0.4 184 0 1 1
7.1 6.5 1.4 51 0 1 3
7.1 6.6 1 48 0 1 3
7.1 6.6 1.2 47 0 1 3
7.1 6.7 0.4 47 0 1 3
7.1 6.7 0.7 47 0 1 3
7.1 6.7 1.7 126 0 1 3
7.1 6.8 0.2 127 0 1 3
7.1 6.8 0.3 46 0 1 3
7.1 6.8 1 52 0 1 3
7.1 6.8 1.3 51 0 1 3
7.1 6.8 1.8 186 0 1 3
7.1 6.9 0.6 46 0 1 3
7.1 6.9 1.4 50 0 1 3
7.1 6.9 1.8 186 0 1 3
7.1 7 0.2 157 0 1 3
7.1 7 0.3 50 0 1 3
7.1 7 1.4 49 0 1 3
7.1 7 1.8 66 0 1 3
7.1 7.1 0.6 50 0 1 3
7.1 7.1 1 49 0 1 3
7.1 7.2 0.2 178 0 1 3
7.1 7.2 1.1 51 0 1 3
7.2 -6.4 2.8 187 0 1 3
7.2 -5.9 2.8 213 0 1 3
7.2 -5.6 2.8 117 0 1 3
7.2 -5.5 2.7 92 0 1 3
7.2 -4.9 2.3 126 0 1 3
7.2 -4.5 1.9 193 0 1 3
7.2 -4.3 1.8 141 0 1 3
7.2 -3.7 1.4 141 0 1 3
7.2 -3.4 1.2 99 0 1 3
7.2 6.4 0.6 54 0 1 3
7.2 6.4 1.1 52 0 1 3
7.2 6.5 0.2 165 0 1 3
7.2 6.5 0.3 51 0 1 3
7.2 6.5 0.9 51 0 1 3
7.2 6.5 1.7 166 0 1 3
7.2 6.6 1.8 179 0 1 3
7.2 6.7 1.8 196 0 1 3
7.3 -6.2 2.9 159 0 1 3
7.3 -6 2.9 212 0 1 3
7.3 -5.6 2.8 90 0 1 3
7.3 -5.5 2.8 83 0 1 3
7.3 -4.6 2 89 0 1 3
7.3 -3.9 1.5 138 0 1 3
7.3 -3.4 1 55 0 1 3
7.3 -3.3 0.7 50 0 1 3
7.3 6.2 1.5 156 0 1 3
7.3 6.3 0.5 61 0 1 3
7.3 6.3 0.8 58 0 1 3
7.3 7.2 1.8 159 0 1 3
7.4 -6.1 2.9 192 0 1 3
7.4 -5.9 3 202 0 1 3
7.4 -5.8 3 215 0 1 3
7.4 -5.7 3 136 0 1 3
7.4 -5.1 2.5 120 0 1 3
7.4 -4.4 1.9 163 0 1 3
7.4 -4.3 1.9 136 0 1 3
7.4 -4.1 1.7 139 0 1 3
7.4 -3.4 1.2 103 0 1 3
7.4 -3.3 0.9 53 0 1 3
7.4 6.1 1.1 58 0 1 3
7.4 6.1 1.2 62 0 1 3
7.4 6.2 0.2 181 0 1 3
7.4 6.3 1.8 188 0 1 3
7.4 7 1.8 192 0 1 3
7.5 -5.8 3 200 0 1 3
7.5 -5.7 3 214 0 1 3
7.5 -5.6 3 215 0 1 3
7.5 -5.5 2.9 86 0 1 3
7.5 -5.3 2.6 97 0 1 3
7.5 -5 2.4 131 0 1 3
7.5 -3.4 1.3 146 0 1 3
7.5 -3.2 0.7 50 0 1 3
7.5 5.8 1.4 119 0 1 3
7.5 5.9 0.8 83 0 1 3
7.5 5.9 1.5 188 0 1 3
7.5 6 0.2 166 0 1 3
7.5 6 0.8 71 0 1 3
7.5 6 1.7 194 0 1 3
7.5 6.1 0.2 173 0 1 3
7.5 6.1 1.7 167 0 1 3
7.5 6.2 1.8 188 0 1 3
7.5 6.3 1.8 184 0 1 3
7.5 6.6 1.8 197 0 1 3
7.5 7.4 1.9 128 0 1 3
7.6 -5.8 3 160 0 1 3
7.6 -5.7 3 207 0 1 3
7.6 -5.6 3 202 0 1 3
7.6 -5.5 2.9 86 0 1 3
7.6 -5.4 2.8 94 0 1 3
7.6 -4.7 2.2 106 0 1 3
7.6 -4.4 2 108 0 1 3
7.6 -4.3 1.9 125 0 1 3
7.6 -4.2 1.8 141 0 1 3
7.6 -4 1.7 139 0 1 3
7.6 -3.7 1.5 136 0 1 3
7.6 -3.3 1.1 53 0 1 3
7.6 6.2 1.8 194 0 1 3
7.6 6.9 1.9 197 0 1 3
7.6 7.2 1.9 191 0 1 3
7.7 -3.3 1.1 50 0 1 3
7.7 -3.3 1.3 80 0 1 3
7.7 -2.6 0.6 193 0 1 1
7.7 -2 0.5 197 0 1 1
7.7 -1.3 0.4 194 0 1 1
7.7 -0.7 0.3 189 0 1 1
7.7 -0.1 0.3 193 0 1 1
7.7 0.6 0.2 191 0 1 1
7.7 1.2 0.1 201 0 1 1
7.7 3.2 -0.1 189 0 1 1
7.7 3.8 -0.2 192 0 1 1
7.7 4.5 -0.2 188 0 1 1
7.7 5.1 -0.3 189 0 1 1
7.7 5.7 0.8 97 0 1 3
7.7 5.8 -0.4 189 0 1 1
7.7 5.8 0.2 163 0 1 3
7.7 6 1.6 205 0 1 3
7.7 6.1 1.8 211 0 1 3
7.7 6.2 1.8 204 0 1 3
7.7 6.4 -0.4 185 0 1 1
7.7 6.5 1.8 193 0 1 3
7.7 7 -0.5 65 0 1 1
7.7 7.6 1.9 65 0 1 3
7.7 7.7 -0.6 67 0 1 1
7.8 -5 2.5 116 0 1 3
7.8 -4.9 2.4 132 0 1 3
7.8 -4.7 2.3 127 0 1 3
7.8 -4 1.8 140 0 1 3
7.8 -3.3 1.3 128 0 1 3
7.8 -3.2 0.9 53 0 1 3
7.8 5.6 1.2 143 0 1 3
7.8 5.6 1.3 189 0 1 3
7.9 -5.5 3 74 0 1 3
7.9 -5.4 2.9 83 0 1 3
7.9 -5.3 2.9 85 0 1 3
7.9 -5.2 2.8 98 0 1 3
7.9 -4.4 2.1 102 0 1 3
7.9 -4.2 2 117 0 1 3
7.9 -3.8 1.6 132 0 1 3
7.9 -3.3 1.3 64 0 1 3
7.9 -3.3 1.4 142 0 1 3
7.9 5.5 0.6 119 0 1 3
7.9 5.5 1.3 208 0 1 3
7.9 5.6 0.2 165 0 1 3
7.9 6.1 1.7 211 0 1 3
7.9 6.1 1.8 210 0 1 3
7.9 6.2 1.8 200 0 1 3
7.9 6.8 1.9 193 0 1 3
7.9 7.6 1.9 163 0 1 3
8 -5.3 2.8 92 0 1 3
8 -4.1 1.9 132 0 1 3
8 -3.9 1.8 136 0 1 3
8 -3.3 1.3 60 0 1 3
8 -3.3 1.4 88 0 1 3
8 -3.2 1.2 59 0 1 3
8 -3.1 0.9 56 0 1 3
8 5.3 1 170 0 1 3
8 5.3 1.1 143 0 1 3
8 5.4 0.6 149 0 1 3
8 5.5 0.2 180 0 1 3
8 5.5 0.6 131 0 1 3
8 6.1 1.8 209 0 1 3
8 6.2 1.8 202 0 1 3
8 6.4 1.8 197 0 1 3
8 7.6 1.9 191 0 1 3
8.1 -5 2.7 96 0 1 3
8.1 -4.9 2.6 112 0 1 3
8.1 -4.6 2.4 134 0 1 3
8.1 -4.5 2.3 109 0 1 3
8.1 -3.2 1.2 58 0 1 3
8.1 -3.2 1.3 60 0 1 3
8.1 -3.1 0.8 55 0 1 3
8.1 5.3 1 204 0 1 3
8.1 5.5 0.2 124 0 1 3
8.1 5.6 1.4 205 0 1 3
8.1 6.2 1.8 206 0 1 3
8.1 6.4 1.9 196 0 1 3
8.1 7.4 1.9 192 0 1 3
8.2 -5.3 3 72 0 1 3
8.2 -5.1 2.8 91 0 1 3
8.2 -4.8 2.5 125 0 1 3
8.2 -4.2 2.1 104 0 1 3
8.2 -3.9 1.9 125 0 1 3
8.2 -3.3 1.4 74 0 1 3
8.2 5.3 1 165 0 1 3
8.2 5.4 0.6 156 0 1 3
8.2 6 1.7 199 0 1 3
8.2 6.6 1.9 199 0 1 3
8.3 -5.3 3 74 0 1 3
8.3 -5.2 2.9 74 0 1 3
8.3 -5.2 3 72 0 1 3
8.3 -5.1 2.9 79 0 1 3
8.3 -4 2 120 0 1 3
8.3 -3.6 1.7 135 0 1 3
8.3 -3.3 1.4 61 0 1 3
8.3 -3.2 1.1 59 0 1 3
8.3 -2.6 0.6 194 0 1 1
8.3 -2 0.5 192 0 1 1
8.3 -1.3 0.4 191 0 1 1
8.3 -0.7 0.4 193 0 1 1
8.3 -0.1 0.3 192 0 1 1
8.3 0.6 0.2 191 0 1 1
8.3 1.2 0.1 196 0 1 1
8.3 3.2 -0.1 191 0 1 1
8.3 3.8 -0.2 188 0 1 1
8.3 4.5 -0.2 190 0 1 1
8.3 5.1 -0.3 187 0 1 1
8.3 5.2 1 185 0 1 3
8.3 5.3 0.6 159 0 1 3
8.3 5.4 0.2 160 0 1 3
8.3 5.8 -0.4 186 0 1 1
8.3 6.3 1.7 198 0 1 3
8.3 6.4 -0.4 187 0 1 1
8.3 7 -0.5 62 0 1 1
8.3 7.2 1.9 194 0 1 3
8.3 7.7 -0.6 66 0 1 1
8.3 7.8 1.9 166 0 1 3
8.3 8.3 -0.6 60 0 1 1
8.4 -5 2.8 99 0 1 3
8.4 -5 2.9 74 0 1 3
8.4 -4.9 2.7 79 0 1 3
8.4 -4.6 2.5 129 0 1 3
8.4 -3.8 1.8 127 0 1 3
8.4 -3.3 1.5 130 0 1 3
8.4 5.2 1 189 0 1 3
8.4 5.3 0.6 165 0 1 3
8.4 5.4 0.2 124 0 1 3
8.4 5.6 1.4 204 0 1 3
8.4 6.4 1.8 209 0 1 3
8.4 6.5 1.9 198 0 1 3
8.4 7.9 1.9 182 0 1 3
8.5 -4.7 2.6 122 0 1 3
8.5 -4.4 2.3 135 0 1 3
8.5 -4.3 2.3 125 0 1 3
8.5 -3.8 1.9 128 0 1 3
8.5 5.1 1 186 0 1 3
8.5 6.7 1.9 196 0 1 3
8.6 -4.9 2.8 100 0 1 3
8.6 -4 2.1 111 0 1 3
8.6 -3.9 2 110 0 1 3
8.6 -3.5 1.8 139 0 1 3
8.6 -3.4 1.6 128 0 1 3
8.6 5.1 1 197 0 1 3
8.6 5.2 0.4 187 0 1 3
8.6 5.2 0.6 169 0 1 3
8.6 5.2 0.7 146 0 1 3
8.6 5.2 0.8 183 0 1 3
8.6 5.3 0.2 181 0 1 3
8.6 5.5 1.4 212 0 1 3
8.6 5.9 1.7 201 0 1 3
8.6 6.3 1.7 195 0 1 3
8.6 7.1 1.9 194 0 1 3
8.6 7.9 1.9 137 0 1 3
8.7 -4.8 2.7 70 0 1 3
8.7 -4.7 2.7 94 0 1 3
8.7 -3.7 1.9 111 0 1 3
8.7 -3.6 1.9 129 0 1 3
8.7 -3.5 1.8 138 0 1 3
8.7 -3.4 1.6 119 0 1 3
8.7 5.1 1 207 0 1 3
8.7 6.6 1.7 196 0 1 3
8.7 6.7 1.8 191 0 1 3
8.8 -4.7 2.7 119 0 1 3
8.8 -4.5 2.5 89 0 1 3
8.8 -4.3 2.4 91 0 1 3
8.8 -4.2 2.3 104 0 1 3
8.8 -4 2.2 86 0 1 3
8.8 -3.9 2.1 99 0 1 3
8.8 -3.8 2 97 0 1 3
8.8 -3.7 1.9 89 0 1 3
8.8 -3.6 1.9 97 0 1 3
8.8 -3.4 1.6 58 0 1 3
8.8 6.8 1.9 157 0 1 3
8.8 7.7 1.9 118 0 1 3
8.9 -3.5 1.7 114 0 1 3
8.9 -3.4 1.4 61 0 1 3
8.9 -3.4 1.6 82 0 1 3
8.9 5.3 1.2 169 0 1 3
8.9 5.4 0.4 167 0 1 3
8.9 5.7 1.5 206 0 1 3
8.9 6.4 -0.4 187 0 1 1
8.9 7 -0.5 69 0 1 1
8.9 7.2 1.9 194 0 1 3
8.9 7.7 -0.6 65 0 1 1
8.9 8.3 -0.6 150 0 1 1
8.9 9 -0.7 180 0 1 1
9 -3.4 1.4 63 0 1 3
9 -3.4 1.5 68 0 1 3
9 -3.4 1.6 69 0 1 3
9 -2.6 0.6 191 0 1 1
9 -2 0.5 196 0 1 1
9 -1.3 0.4 191 0 1 1
9 -0.7 0.3 195 0 1 1
9 -0.1 0.3 190 0 1 1
9 0.6 0.2 194 0 1 1
9 1.2 0.1 196 0 1 1
9 1.9 0 196 0 1 1
9 2.5 0 198 0 1 1
9 3.2 -0.1 192 0 1 1
9 3.8 -0.2 190 0 1 1
9 4.5 -0.2 188 0 1 1
9 5.1 -0.3 188 0 1 1
9 5.7 1.6 204 0 1 3
9 5.8 -0.4 190 0 1 1
9 6.5 1.7 192 0 1 3
9 7.1 1.9 181 0 1 3
9 7.5 1.9 178 0 1 3
9.1 -3.4 1.4 66 0 1 3
9.1 -3.3 1.1 58 0 1 3
9.1 6.9 1.7 184 0 1 3
9.1 7.4 1.9 183 0 1 3
9.2 -3.4 1.2 65 0 1 3
9.2 5.4 1.3 189 0 1 3
9.2 7 1.7 184 0 1 3
9.2 7.3 1.9 109 0 1 3
9.3 -3.4 1.2 64 0 1 3
9.3 5.5 1.4 201 0 1 3
9.4 -3.4 1.1 66 0 1 3
9.4 -3.4 1.2 61 0 1 3
9.4 5.5 1.5 119 0 1 3
9.5 -3.3 0.8 184 0 1 3
9.5 7.1 1.7 182 0 1 3
9.5 7.2 1.7 205 0 1 3
9.5 8.3 -0.6 190 0 1 1
9.5 9 -0.7 185 0 1 1
9.5 9.6 -0.7 184 0 1 1
9.6 -3.3 0.7 203 0 1 1
9.6 -2.6 0.6 197 0 1 1
9.6 -2 0.5 191 0 1 1
9.6 -1.3 0.4 195 0 1 1
9.6 -0.7 0.3 194 0 1 1
9.6 -0.1 0.3 192 0 1 1
9.6 0.6 0.2 196 0 1 1
9.6 1.2 0.1 197 0 1 1
9.6 1.9 0 201 0 1 1
9.6 2.5 0 200 0 1 1
9.6 3.2 -0.1 192 0 1 1
9.6 3.8 -0.2 188 0 1 1
9.6 4.5 -0.2 191 0 1 1
9.6 5.1 -0.3 188 0 1 1
9.6 5.8 -0.4 188 0 1 1
9.6 6.1 1.6 196 0 1 3
9.6 6.4 -0.4 189 0 1 1
9.6 7 -0.5 188 0 1 1
9.6 7.7 -0.6 193 0 1 1
9.7 5.7 1.5 200 0 1 3
9.7 5.8 1.5 184 0 1 3
9.7 7 1.7 179 0 1 3
9.8 6.6 1.7 200 0 1 3
9.8 6.8 1.7 181 0 1 3
10 5.9 1.5 196 0 1 3
10 6 1.5 121 0 1 3
10.2 4.5 -0.2 185 0 1 1
10.2 5.1 -0.3 188 0 1 1
10.2 5.8 -0.3 185 0 1 1
10.2 6.4 -0.4 190 0 1 1
10.2 7 -0.5 187 0 1 1
10.2 7.7 -0.6 187 0 1 1
10.2 8.3 -0.6 197 0 1 1
10.2 9 -0.7 186 0 1 1
10.2 9.6 -0.7 189 0 1 1
10.2 10.3 -0.7 189 0 1 1
10.3 -3.3 0.6 201 0 1 1
10.3 -2.6 0.6 199 0 1 1
10.3 -2 0.5 193 0 1 1
10.3 -1.3 0.4 192 0 1 1
10.3 -0.7 0.3 194 0 1 1
10.3 -0.1 0.2 194 0 1 1
10.3 0.6 0.2 196 0 1 1
10.3 1.2 0.1 196 0 1 1
10.3 1.9 0 200 0 1 1
10.3 2.5 0 197 0 1 1
10.3 3.2 -0.1 193 0 1 1
10.3 3.8 -0.1 192 0 1 1
10.8 7 -0.5 186 0 1 1
10.8 7.7 -0.5 186 0 1 1
10.8 8.3 -0.6 192 0 1 1
10.8 9 -0.6 184 0 1 1
10.8 9.6 -0.7 179 0 1 1
10.8 10.9 -0.7 187 0 1 1
10.9 -3.3 0.6 201 0 1 1
10.9 -2.6 0.5 197 0 1 1
10.9 -2 0.4 195 0 1 1
10.9 -1.3 0.4 196 0 1 1
10.9 -0.7 0.3 195 0 1 1
10.9 -0.1 0.2 194 0 1 1
10.9 0.6 0.1 193 0 1 1
10.9 1.2 0.1 196 0 1 1
10.9 1.9 0 200 0 1 1
10.9 2.5 0 199 0 1 1
10.9 3.2 -0.1 194 0 1 1
10.9 3.8 -0.1 191 0 1 1
10.9 4.5 -0.2 186 0 1 1
10.9 5.1 -0.3 190 0 1 1
10.9 5.8 -0.3 185 0 1 1
10.9 6.4 -0.4 189 0 1 1
11.5 3.8 -0.1 190 0 1 1
11.5 4.5 -0.2 187 0 1 1
11.5 5.1 -0.2 189 0 1 1
11.5 5.8 -0.3 188 0 1 1
11.5 6.4 -0.4 187 0 1 1
11.5 7 -0.4 190 0 1 1
11.6 -3.9 0.6 209 0 1 1
11.6 -3.3 0.5 204 0 1 1
11.6 -2.6 0.5 195 0 1 1
11.6 -2 0.4 198 0 1 1
11.6 -1.3 0.3 195 0 1 1
11.6 -0.7 0.3 196 0 1 1
11.6 -0.1 0.2 194 0 1 1
11.6 0.6 0.1 196 0 1 1
11.6 1.2 0.1 196 0 1 1
11.6 1.9 0 203 0 1 1
11.6 2.5 0 201 0 1 1
11.6 3.2 -0.1 193 0 1 1
12.1 7 -0.4 189 0 1 1
12.2 -3.9 0.5 206 0 1 1
12.2 -3.3 0.5 204 0 1 1
12.2 -2.6 0.4 197 0 1 1
12.2 -2 0.4 195 0 1 1
12.2 -1.3 0.3 197 0 1 1
12.2 -0.7 0.2 197 0 1 1
12.2 -0.1 0.2 193 0 1 1
12.2 0.6 0.1 198 0 1 1
12.2 1.2 0 195 0 1 1
12.2 1.9 0 202 0 1 1
12.2 2.5 0 197 0 1 1
12.2 3.2 -0.1 191 0 1 1
12.2 3.8 -0.1 190 0 1 1
12.2 4.5 -0.2 188 0 1 1
12.2 5.1 -0.2 187 0 1 1
12.2 5.8 -0.3 188 0 1 1
12.2 6.4 -0.3 187 0 1 1
12.3 -2.3 0.4 53 0 1 2
12.4 -2.5 0.5 141 0 1 2
12.4 -2.4 0.5 169 0 1 2
12.4 -2.3 0.5 157 0 1 2
12.4 -2.3 0.7 85 0 1 2
12.4 -2.2 0.5 96 0 1 2
12.5 -2.7 0.4 200 0 1 2
12.5 -2.3 0.7 196 0 1 2
12.5 -2.2 0.4 52 0 1 2
12.6 -2.7 0.5 197 0 1 2
12.6 -2.6 0.7 203 0 1 2
12.6 -2.2 0.7 166 0 1 2
12.7 -2.7 0.5 198 0 1 2
12.7 -2.7 0.7 201 0 1 2
12.7 -2.3 0.7 202 0 1 2
12.7 -2.2 0.7 199 0 1 2
12.7 -2.1 0.4 51 0 1 2
12.8 -2.1 0.7 198 0 1 2
12.8 3.2 -0.1 194 0 1 1
12.8 3.8 -0.1 194 0 1 1
12.8 4.5 -0.1 187 0 1 1
12.8 5.1 -0.2 188 0 1 1
12.8 5.8 -0.2 185 0 1 1
12.8 6.4 -0.3 189 0 1 1
12.8 7 -0.4 187 0 1 1
12.8 7.7 -0.4 191 0 1 1
12.9 -3.9 0.5 205 0 1 1
12.9 -3.3 0.4 201 0 1 1
12.9 -2.1 0.6 56 0 1 2
12.9 -2 0.3 194 0 1 1
12.9 -1.3 0.2 194 0 1 1
12.9 -0.7 0.2 196 0 1 1
12.9 -0.1 0.1 194 0 1 1
12.9 0.6 0.1 197 0 1 1
12.9 1.2 0 196 0 1 1
12.9 1.9 0 203 0 1 1
12.9 2.5 0 199 0 1 1
13 -2.7 0.7 180 0 1 2
13 -2.1 0.7 154 0 1 2
13 -2 0.4 53 0 1 2
13.1 -2 0.5 56 0 1 2
13.1 -2 0.7 86 0 1 2
13.1 -0.5 0.2 89 0 1 2
13.1 -0.5 0.3 194 0 1 2
13.1 -0.4 0.4 88 0 1 2
13.1 -0.2 0.4 92 0 1 2
13.1 -0.1 0.2 51 0 1 2
13.1 -0.1 0.3 50 0 1 2
13.2 -2.4 0.7 193 0 1 2
13.2 -2.3 0.7 187 0 1 2
13.2 -2 0.7 125 0 1 2
13.2 -1.9 0.3 50 0 1 2
13.2 -1.9 0.5 54 0 1 2
13.2 -0.5 0.4 160 0 1 2
13.2 -0.4 0.4 158 0 1 2
13.2 -0.3 0.4 169 0 1 2
13.2 -0.2 0.5 173 0 1 2
13.2 0 0.2 55 0 1 2
13.2 -0.1 0.4 108 0 1 2
13.3 -2.6 0.7 195 0 1 2
13.3 -1.9 0.3 185 0 1 2
13.3 -0.6 0.2 189 0 1 2
13.3 -0.6 0.3 196 0 1 2
13.3 -0.5 0.4 195 0 1 2
13.3 -0.5 0.5 202 0 1 2
13.3 -0.4 0.5 202 0 1 2
13.3 -0.2 0.5 200 0 1 2
13.3 0 0.4 181 0 1 2
13.4 -1.9 0.5 165 0 1 2
13.4 -1.9 0.7 146 0 1 2
13.4 -0.7 0.1 195 0 1 2
13.4 -0.6 0.2 189 0 1 2
13.4 -0.5 0.5 198 0 1 2
13.4 -0.4 0.5 198 0 1 2
13.4 -0.2 0.5 183 0 1 2
13.4 0 0.3 174 0 1 2
13.4 -0.1 0.4 161 0 1 2
13.4 7.7 -0.4 178 0 1 1
13.5 -4.6 0.4 202 0 1 1
13.5 -3.9 0.4 204 0 1 1
13.5 -3.3 0.4 202 0 1 1
13.5 -1.9 0.6 181 0 1 2
13.5 -1.9 0.7 91 0 1 2
13.5 -1.3 0.2 196 0 1 1
13.5 -0.7 0.1 195 0 1 1
13.5 -0.5 0.5 200 0 1 2
13.5 0.6 0 197 0 1 1
13.5 1.2 0 202 0 1 1
13.5 1.9 0 202 0 1 1
13.5 2.5 0 198 0 1 1
13.5 3.2 -0.1 196 0 1 1
13.5 3.8 -0.1 188 0 1 1
13.5 4.5 -0.1 194 0 1 1
13.5 5.1 -0.2 189 0 1 1
13.5 5.8 -0.2 188 0 1 1
13.5 6.4 -0.3 186 0 1 1
13.5 7 -0.3 182 0 1 1
13.6 0 0.1 53 0 1 2
13.7 4.7 0.2 48 0 1 3
13.8 3.4 0.5 150 0 1 3
13.8 4.7 0.8 135 0 1 3
13.9 3 0.5 167 0 1 3
14 2.6 0.3 174 0 1 3
14 2.8 0.6 178 0 1 3
14.1 -4.6 0.4 202 0 1 1
14.1 -3.9 0.3 203 0 1 1
14.1 -3.3 0.3 203 0 1 1
14.1 -1.3 0.1 196 0 1 1
14.1 -0.7 0.1 194 0 1 1
14.1 0.6 0 196 0 1 1
14.1 1.2 0 197 0 1 1
14.1 1.9 0 200 0 1 1
14.1 2.5 0 200 0 1 1
14.1 6.4 -0.2 81 0 1 1
14.1 7 -0.3 63 0 1 1
14.1 7.7 -0.3 60 0 1 1
14.1 8.3 -0.3 63 0 1 1
14.2 2.8 0.7 190 0 1 3
14.3 2.6 0.6 211 0 1 3
14.3 5.6 1.4 168 0 1 3
14.3 5.6 1.5 149 0 1 3
14.3 5.7 1.5 59 0 1 3
14.3 6 0.7 50 0 1 3
14.5 2.7 1 199 0 1 3
14.5 4 1.2 197 0 1 3
14.5 5.8 1.9 94 0 1 3
14.5 6.1 1.8 50 0 1 3
14.7 6 2.5 155 0 1 3
14.7 6.1 2.5 81 0 1 3
14.7 6.5 1.8 94 0 1 3
14.7 6.9 1.5 56 0 1 3
14.7 7 1 66 0 1 3
14.7 7.2 0.6 56 0 1 3
14.7 8.3 -0.3 60 0 1 1
14.8 -4.6 0.3 202 0 1 1
14.8 -3.9 0.3 203 0 1 1
14.8 -3.3 0.2 204 0 1 1
14.8 -2 0.1 196 0 1 1
14.8 -1.3 0.1 194 0 1 1
14.8 -0.7 0 190 0 1 1
14.8 0.6 0 194 0 1 1
14.8 1.2 0 199 0 1 1
14.8 1.9 0 202 0 1 1
14.8 2.7 1.1 201 0 1 3
14.8 3 1.4 174 0 1 3
14.8 6.3 2.4 65 0 1 3
14.8 6.4 2.3 62 0 1 3
14.8 6.8 1.7 76 0 1 3
14.8 7.7 -0.2 61 0 1 1
14.9 3.2 1.6 188 0 1 3
14.9 3.5 1.9 107 0 1 3
14.9 3.9 2.1 97 0 1 3
15 3 1.4 200 0 1 3
15 4.4 2.5 120 0 1 3
15 4.5 2.5 165 0 1 3
15 6.1 2.6 174 0 1 3
15 7 1.4 63 0 1 3
15.1 2.6 1.1 168 0 1 3
15.1 4.5 2.6 159 0 1 3
15.2 5.8 2.7 126 0 1 3
15.3 4.7 2.7 129 0 1 3
15.4 -4.6 0.2 202 0 1 1
15.4 -3.9 0.2 204 0 1 1
15.4 -2 0.1 195 0 1 1
15.4 -1.3 0.1 196 0 1 1
15.4 0.6 0 196 0 1 1
15.4 1.2 0 201 0 1 1
15.4 1.9 0 203 0 1 1
15.4 8.3 -0.2 59 0 1 1
15.4 9 -0.2 63 0 1 1
15.6 5 2.8 150 0 1 3
15.6 5.1 2.9 101 0 1 3
15.6 5.3 2.9 75 0 1 3
15.6 5.7 2.8 172 0 1 3
15.6 6.6 2.4 60 0 1 3
15.6 6.8 2 56 0 1 3
15.7 2.4 0.8 196 0 1 3
15.7 5.2 3 147 0 1 3
15.8 2.3 0.5 193 0 1 3
16.1 -4.6 0.1 203 0 1 1
16.1 -3.9 0.1 204 0 1 1
16.1 -2 0 197 0 1 1
16.1 -1.3 0 198 0 1 1
16.1 0.6 0 199 0 1 1
16.1 1.2 0 198 0 1 1
16.1 1.9 0 203 0 1 1
16.1 2.4 0.6 159 0 1 3
16.1 8.3 -0.2 58 0 1 1
16.1 9 -0.2 63 0 1 1
16.3 2.4 0.6 174 0 1 3
16.7 -5.2 0.1 200 0 1 1
16.7 -4.6 0.1 203 0 1 1
16.7 -3.9 0.1 204 0 1 1
16.7 -2 0 197 0 1 1
16.7 -1.3 0 196 0 1 1
16.7 0.6 0 197 0 1 1
16.7 1.2 0 193 0 1 1
16.7 1.9 0 202 0 1 1
16.7 8.3 -0.1 56 0 1 1
16.7 9 -0.1 79 0 1 1
16.7 9.6 -0.1 189 0 1 1
16.9 5.9 2.9 62 0 1 3
17 6.4 2.8 180 0 1 3
17.4 -5.9 0 200 0 1 1
17.4 -5.2 0 199 0 1 1
17.4 -4.6 0 203 0 1 1
17.4 -3.9 0 203 0 1 1
17.4 -2 0 193 0 1 1
17.4 -1.3 0 194 0 1 1
17.4 -0.1 0 191 0 1 1
17.4 0.6 0 197 0 1 1
17.4 1.2 0 194 0 1 1
17.4 1.9 0 199 0 1 1
17.4 9 -0.1 193 0 1 1
17.4 9.6 -0.1 189 0 1 1
17.4 10.3 -0.1 183 0 1 1
18 -5.9 0 200 0 1 1
18 -5.2 0 198 0 1 1
18 -4.6 0 200 0 1 1
18 -3.9 0 201 0 1 1
18 -2 0 195 0 1 1
18 -1.3 0 195 0 1 1
18 -0.7 0 195 0 1 1
18 -0.1 0 195 0 1 1
18 0.6 0 194 0 1 1
18 1.2 0 192 0 1 1
18 1.9 0 199 0 1 1
18 2.5 0 198 0 1 1
18 9 -0.1 192 0 1 1
18 9.6 -0.1 188 0 1 1
18 10.3 -0.1 183 0 1 1
18.7 -6.5 0 174 0 1 1
18.7 -5.9 0 200 0 1 1
18.7 -5.2 0 197 0 1 1
18.7 -4.6 0 198 0 1 1
18.7 -3.9 0 112 0 1 1
18.7 -2 0 200 0 1 1
18.7 -1.3 0 197 0 1 1
18.7 -0.7 0 190 0 1 1
18.7 -0.1 0 191 0 1 1
18.7 0.6 0 194 0 1 1
18.7 1.2 0 194 0 1 1
18.7 1.9 0 192 0 1 1
18.7 2.5 0 198 0 1 1
18.7 9.6 -0.1 188 0 1 1
18.7 10.3 -0.1 183 0 1 1
18.7 10.9 -0.1 182 0 1 1
19.3 -6.5 0 196 0 1 1
19.3 -5.9 0 199 0 1 1
19.3 -5.2 0 200 0 1 1
19.3 -4.6 0 195 0 1 1
19.3 -2.6 0 197 0 1 1
19.3 -2 0 201 0 1 1
19.3 -1.3 0 195 0 1 1
19.3 -0.7 0 197 0 1 1
19.3 -0.1 0 195 0 1 1
19.3 0.6 0 193 0 1 1
19.3 1.2 0 192 0 1 1
19.3 1.9 0 193 0 1 1
19.3 2.5 0 190 0 1 1
19.3 9.6 -0.1 186 0 1 1
19.3 10.3 -0.1 189 0 1 1
19.3 10.9 -0.1 177 0 1 1
20 -6.5 0 137 0 1 1
20 -5.9 0 134 0 1 1
20 -5.2 0 133 0 1 1
20 -4.6 0 133 0 1 1
20 -2.6 0 129 0 1 1
20 -2 0 132 0 1 1
20 -1.3 0 132 0 1 1
20 -0.7 0 129 0 1 1
20 -0.1 0 128 0 1 1
20 0.6 0 130 0 1 1
20 1.2 0 128 0 1 1
20 1.9 0 127 0 1 1
20 2.5 0 126 0 1 1
20 10.3 0 122 0 1 1
20 10.9 0 118 0 1 1
20 11.6 0 117 0 1 1
