-20.1 -14.2 -0.1 102 0 1 1
-20.1 -13.6 -0.1 101 0 1 1
-20.1 -13 -0.1 157 0 1 1
-20.1 -12.3 -0.1 153 0 1 1
-20.1 -9.1 -0.1 138 0 1 1
-20.1 -8.4 -0.1 143 0 1 1
-20.1 -7.8 -0.1 210 0 1 1
-20.1 -7.1 -0.1 211 0 1 1
-20.1 -5.9 -0.1 215 0 1 1
-20.1 -5.2 -0.1 215 0 1 1
-20.1 -4.6 -0.1 210 0 1 1
-20.1 -3.9 -0.1 205 0 1 1
-20.1 -3.3 -0.1 199 0 1 1
-20.1 -2.6 -0.1 77 0 1 1
-20.1 -2 -0.1 61 0 1 1
-20.1 -1.3 -0.1 69 0 1 1
-20.1 -0.7 -0.1 199 0 1 1
-20.1 0 -0.1 202 0 1 1
-20.1 0.6 -0.1 204 0 1 1
-20.1 1.2 -0.1 204 0 1 1
-20 -20 0 98 0 1 1
-20 -19.4 0 95 0 1 1
-20 -18.8 0 98 0 1 1
-20 -18.1 0 100 0 1 1
-20 -17.5 0 98 0 1 1
-20 -16.8 0 98 0 1 1
-20 -16.2 0 101 0 1 1
-20 -15.5 0 103 0 1 1
-20 -14.9 0 106 0 1 1
-20 1.9 0 206 0 1 1
-20 2.5 0 193 0 1 1
-20 3.2 0 194 0 1 1
-20 3.8 0 193 0 1 1
-20 4.5 0 190 0 1 1
-20 5.1 0 182 0 1 1
-20 12.9 0 95 0 1 1
-20 13.5 0 96 0 1 1
-20 14.1 0 94 0 1 1
-20 14.8 0 96 0 1 1
-20 15.4 0 94 0 1 1
-20 16.1 0 94 0 1 1
-20 16.7 0 95 0 1 1
-20 17.4 0 92 0 1 1
-20 18 0 90 0 1 1
-20 18.7 0 89 0 1 1
-20 19.3 0 91 0 1 1
-20 20 0 87 0 1 1
-19.4 -19.4 0 153 0 1 1
-19.4 -18.8 0 154 0 1 1
-19.4 -18.1 0 154 0 1 1
-19.4 -17.5 0 153 0 1 1
-19.4 -16.8 0 158 0 1 1
-19.4 -16.2 0 161 0 1 1
-19.4 -15.5 -0.1 168 0 1 1
-19.4 -14.9 -0.1 172 0 1 1
-19.4 -14.2 -0.1 181 0 1 1
-19.4 -9.1 0 162 0 1 1
-19.4 -8.4 0 154 0 1 1
-19.4 -7.8 0 171 0 1 1
-19.4 -7.1 0 210 0 1 1
-19.4 -5.2 0 212 0 1 1
-19.4 -4.6 -0.1 215 0 1 1
-19.4 -3.9 -0.1 211 0 1 1
-19.4 -3.3 -0.1 201 0 1 1
-19.4 -2.6 -0.1 83 0 1 1
-19.4 -2 -0.1 59 0 1 1
-19.4 -1.3 -0.1 59 0 1 1
-19.4 -0.7 -0.1 199 0 1 1
-19.4 0 -0.1 203 0 1 1
-19.4 0.6 -0.1 205 0 1 1
-19.4 1.2 -0.1 200 0 1 1
-19.4 1.9 -0.1 205 0 1 1
-19.4 2.5 -0.1 194 0 1 1
-19.4 3.2 0 195 0 1 1
-19.4 3.8 0 187 0 1 1
-19.4 4.5 0 189 0 1 1
-19.4 12.9 0 144 0 1 1
-19.4 13.5 0 145 0 1 1
-19.4 14.1 0 151 0 1 1
-19.4 14.8 0 150 0 1 1
-19.4 15.4 0 150 0 1 1
-19.4 16.1 0 143 0 1 1
-19.4 16.7 0 144 0 1 1
-19.4 17.4 0 148 0 1 1
-19.4 18 0 144 0 1 1
-19.4 18.7 0 139 0 1 1
-19.4 19.3 0 142 0 1 2
-18.8 -18.8 0 161 0 1 1
-18.8 -18.1 0 160 0 1 1
-18.8 -17.5 0 160 0 1 1
-18.8 -16.8 0 158 0 1 1
-18.8 -16.2 0 164 0 1 1
-18.8 -15.5 -0.1 184 0 1 1
-18.8 -9.1 0 55 0 1 1
-18.8 -7.8 0 168 0 1 1
-18.8 -7.1 0 212 0 1 1
-18.8 -5.2 0 213 0 1 1
-18.8 -4.6 0 215 0 1 1
-18.8 -3.9 0 212 0 1 1
-18.8 -3.3 -0.1 203 0 1 1
-18.8 -2.6 -0.1 82 0 1 1
-18.8 -2 -0.1 85 0 1 1
-18.8 -1.3 -0.1 61 0 1 1
-18.8 -0.7 -0.1 201 0 1 1
-18.8 -0.1 -0.1 204 0 1 1
-18.8 0.6 -0.1 205 0 1 1
-18.8 1.2 -0.1 203 0 1 1
-18.8 1.9 -0.1 204 0 1 1
-18.8 2.5 -0.1 192 0 1 1
-18.8 3.2 0 187 0 1 1
-18.8 3.8 0 188 0 1 1
-18.8 4.5 0 188 0 1 1
-18.8 12.2 0 161 0 1 1
-18.8 12.9 0 154 0 1 1
-18.8 13.5 0 150 0 1 1
-18.8 14.1 0 153 0 1 1
-18.8 14.8 0 153 0 1 1
-18.8 15.4 0 153 0 1 1
-18.8 16.1 0 151 0 1 1
-18.8 16.7 0 145 0 1 1
-18.8 17.4 0 152 0 1 1
-18.8 18 0 146 0 1 1
-18.8 18.7 0 141 0 1 1
-18.2 -7.1 0 169 0 1 1
-18.2 -5.2 0 213 0 1 1
-18.2 -4.6 0 213 0 1 1
-18.2 -3.9 0 213 0 1 1
-18.2 -3.3 0 202 0 1 1
-18.2 -2 -0.1 81 0 1 1
-18.2 -1.3 -0.1 58 0 1 1
-18.1 -18.1 0 161 0 1 1
-18.1 -17.5 0 159 0 1 1
-18.1 -16.8 -0.1 165 0 1 1
-18.1 -16.2 -0.1 190 0 1 1
-18.1 -0.7 -0.1 198 0 1 1
-18.1 -0.1 -0.1 205 0 1 1
-18.1 0.6 -0.1 204 0 1 1
-18.1 1.2 -0.1 205 0 1 1
-18.1 1.9 -0.1 203 0 1 1
-18.1 2.5 -0.1 187 0 1 1
-18.1 3.2 -0.1 189 0 1 1
-18.1 3.8 -0.1 185 0 1 1
-18.1 4.5 0 184 0 1 1
-18.1 12.2 -0.1 160 0 1 1
-18.1 12.9 -0.1 165 0 1 1
-18.1 13.5 -0.1 155 0 1 1
-18.1 14.1 -0.1 157 0 1 1
-18.1 14.8 -0.1 152 0 1 1
-18.1 15.4 -0.1 154 0 1 1
-18.1 16.1 0 157 0 1 1
-18.1 16.7 0 149 0 1 1
-18.1 17.4 0 156 0 1 1
-18.1 18 0 149 0 1 1
-17.6 -6.5 0.1 211 0 1 1
-17.6 -5.2 0.1 215 0 1 1
-17.6 -4.6 0 214 0 1 1
-17.6 -3.9 0 212 0 1 1
-17.6 -3.3 0 202 0 1 1
-17.5 -17.5 0 160 0 1 1
-17.5 -16.8 -0.1 188 0 1 1
-17.5 -16.2 -0.1 191 0 1 1
-17.5 -2 0 83 0 1 1
-17.5 -1.3 0 58 0 1 1
-17.5 -0.7 -0.1 201 0 1 1
-17.5 -0.1 -0.1 204 0 1 1
-17.5 0.6 -0.1 205 0 1 1
-17.5 1.2 -0.1 200 0 1 1
-17.5 1.9 -0.1 206 0 1 1
-17.5 2.3 -0.4 190 0 1 3
-17.5 2.5 -0.1 191 0 1 1
-17.5 3.2 -0.1 185 0 1 1
-17.5 3.8 -0.1 187 0 1 1
-17.5 4.5 0 185 0 1 1
-17.5 11.6 -0.1 162 0 1 1
-17.5 12.2 -0.1 168 0 1 1
-17.5 12.9 -0.1 169 0 1 1
-17.5 13.5 -0.1 159 0 1 1
-17.5 14.1 -0.1 158 0 1 1
-17.5 14.8 -0.1 157 0 1 1
-17.5 15.4 -0.1 154 0 1 1
-17.5 16.1 0 156 0 1 1
-17.5 16.7 0 150 0 1 1
-17.5 17.4 0 156 0 1 1
-17.2 2.6 0 190 0 1 3
-17.1 2.6 0.2 192 0 1 3
-17 -6.5 0.1 214 0 1 1
-17 2 0.5 198 0 1 3
-17 2.2 0.6 195 0 1 3
-17 2.8 0.2 196 0 1 3
-17 2.8 0.4 194 0 1 3
-16.9 -4.6 0.1 213 0 1 1
-16.9 -3.9 0.1 213 0 1 1
-16.9 -3.3 0.1 210 0 1 1
-16.9 -1.3 0 58 0 1 1
-16.9 -0.7 0 201 0 1 1
-16.9 -0.1 -0.1 202 0 1 1
-16.9 0.6 -0.1 206 0 1 1
-16.9 1.2 -0.1 201 0 1 1
-16.9 1.9 0.6 208 0 1 3
-16.9 1.9 0.7 212 0 1 3
-16.8 1.9 -0.1 198 0 1 1
-16.8 2.5 -0.1 187 0 1 1
-16.8 3.2 -0.1 188 0 1 1
-16.8 3.8 -0.1 187 0 1 1
-16.8 10.9 -0.1 165 0 1 1
-16.8 11.6 -0.1 170 0 1 1
-16.8 12.2 -0.1 166 0 1 1
-16.8 12.9 -0.1 165 0 1 1
-16.8 13.5 -0.1 170 0 1 1
-16.8 14.1 -0.1 159 0 1 1
-16.8 14.8 -0.1 162 0 1 1
-16.8 15.4 -0.1 157 0 1 1
-16.8 16.1 -0.1 155 0 1 1
-16.8 16.7 -0.1 161 0 1 1
-16.5 1.7 1.1 211 0 1 3
-16.5 3.4 0.5 187 0 1 3
-16.3 -6.5 0.2 165 0 1 1
-16.3 -4.6 0.2 217 0 1 1
-16.3 -3.9 0.1 213 0 1 1
-16.3 -3.3 0.1 209 0 1 1
-16.3 -1.3 0 57 0 1 1
-16.3 -0.7 0 200 0 1 1
-16.3 1.5 1.3 200 0 1 3
-16.3 3.8 0.1 187 0 1 3
-16.2 -0.1 0 203 0 1 1
-16.2 0.6 -0.1 206 0 1 1
-16.2 1.2 -0.1 203 0 1 1
-16.2 1.4 1.3 208 0 1 3
-16.2 1.9 -0.1 188 0 1 1
-16.2 2.5 -0.1 190 0 1 1
-16.2 3.2 -0.1 187 0 1 1
-16.2 3.8 -0.1 186 0 1 1
-16.2 10.9 -0.2 166 0 1 1
-16.2 11.6 -0.2 164 0 1 1
-16.2 12.2 -0.2 168 0 1 1
-16.2 12.9 -0.1 168 0 1 1
-16.2 13.5 -0.1 174 0 1 1
-16.2 14.1 -0.1 167 0 1 1
-16.2 14.8 -0.1 162 0 1 1
-16.2 15.4 -0.1 161 0 1 1
-16.2 16.1 -0.1 159 0 1 1
-16.1 1.1 1.4 204 0 1 3
-16.1 1.2 1.4 205 0 1 3
-16 2.7 1.1 197 0 1 3
-15.9 4.1 0.6 188 0 1 3
-15.8 -4.2 1.7 202 0 1 3
-15.8 -4 2.2 204 0 1 3
-15.8 4.2 0.6 187 0 1 3
-15.7 -7.1 0.3 166 0 1 1
-15.7 -5.9 0.3 211 0 1 1
-15.7 -4.6 0.2 216 0 1 1
-15.7 -4.1 2.2 203 0 1 3
-15.7 -3.9 0.2 214 0 1 1
-15.7 -3.8 2.2 204 0 1 3
-15.7 -3.3 0.2 209 0 1 1
-15.7 -2.6 0.1 205 0 1 1
-15.7 1.1 1.9 212 0 1 3
-15.7 4.2 0.7 189 0 1 3
-15.7 4.4 0.5 187 0 1 3
-15.6 -4.3 1.7 204 0 1 3
-15.6 -1.3 0.1 58 0 1 1
-15.6 -0.7 0 196 0 1 1
-15.6 -0.1 0 204 0 1 1
-15.6 0.6 0 203 0 1 1
-15.6 1.2 -0.1 203 0 1 1
-15.6 1.9 -0.1 187 0 1 1
-15.6 2.4 1.4 195 0 1 3
-15.6 2.5 -0.1 192 0 1 1
-15.6 10.3 -0.2 181 0 1 1
-15.6 10.9 -0.2 166 0 1 1
-15.6 11.6 -0.2 164 0 1 1
-15.6 12.2 -0.2 172 0 1 1
-15.6 12.9 -0.2 172 0 1 1
-15.6 13.5 -0.2 174 0 1 1
-15.6 14.1 -0.2 170 0 1 1
-15.5 -4.4 1.4 208 0 1 3
-15.5 -4.4 1.5 209 0 1 3
-15.5 1.7 1.8 201 0 1 3
-15.5 3.2 -0.1 191 0 1 1
-15.5 3.8 -0.1 187 0 1 1
-15.5 4.4 0.8 171 0 1 3
-15.5 14.8 -0.1 165 0 1 1
-15.5 15.4 -0.1 165 0 1 1
-15.4 -3.7 2.3 208 0 1 3
-15.4 3 1.4 188 0 1 3
-15.3 -3.5 2.4 209 0 1 3
-15.3 0.9 2.3 213 0 1 3
-15.3 2.8 1.5 193 0 1 3
-15.2 3.6 1.3 175 0 1 3
-15.1 -7.1 0.4 165 0 1 1
-15.1 -6.5 0.4 167 0 1 1
-15.1 -5.9 0.3 211 0 1 1
-15.1 -3.9 0.3 213 0 1 1
-15.1 -3.3 0.2 213 0 1 1
-15.1 -2.7 2.5 149 0 1 3
-15.1 -2.6 0.2 198 0 1 1
-15 -5.1 0.4 213 0 1 3
-15 -4.9 0.9 213 0 1 3
-15 -3.5 2.5 203 0 1 3
-15 -2.8 2.5 186 0 1 3
-15 -2.5 2.5 190 0 1 3
-15 -0.7 0.1 165 0 1 1
-15 -0.1 0 197 0 1 1
-15 0.6 0 201 0 1 1
-15 1 2.5 200 0 1 3
-15 1.2 0 205 0 1 1
-14.9 -3.5 2.5 188 0 1 3
-14.9 -2.7 2.5 212 0 1 3
-14.9 1.9 -0.1 184 0 1 1
-14.9 2 2.1 210 0 1 3
-14.9 2.5 -0.1 188 0 1 1
-14.9 3.2 -0.1 187 0 1 1
-14.9 4.6 1.1 167 0 1 3
-14.9 10.3 -0.3 173 0 1 1
-14.9 10.9 -0.3 172 0 1 1
-14.9 11.6 -0.3 170 0 1 1
-14.9 12.2 -0.3 174 0 1 1
-14.9 12.9 -0.3 167 0 1 1
-14.9 13.5 -0.2 173 0 1 1
-14.9 14.1 -0.2 174 0 1 1
-14.9 14.8 -0.2 172 0 1 1
-14.8 -3.6 2.4 191 0 1 3
-14.8 -3.6 2.5 157 0 1 1
-14.8 -2.8 2.3 205 0 1 3
-14.8 3.7 1.6 163 0 1 3
-14.7 -3.9 2.3 144 0 1 3
-14.7 -2.3 2.2 169 0 1 3
-14.6 -3.5 2.2 202 0 1 3
-14.6 -2.1 2 191 0 1 3
-14.6 3 2 155 0 1 3
-14.6 4.4 1.4 161 0 1 3
-14.6 4.8 1.1 118 0 1 3
-14.5 -6.5 0.4 166 0 1 1
-14.5 -5.9 0.4 165 0 1 1
-14.5 -5.2 0.4 209 0 1 1
-14.5 -4.2 2.2 146 0 1 3
-14.5 -4.1 2.2 179 0 1 3
-14.5 -3.9 0.3 213 0 1 1
-14.5 -3.3 0.3 208 0 1 1
-14.5 1.1 2.9 205 0 1 3
-14.5 1.6 2.7 196 0 1 3
-14.5 4.5 1.4 131 0 1 3
-14.4 -2.6 0.2 198 0 1 1
-14.4 -0.7 0.1 166 0 1 1
-14.4 -0.1 0.1 198 0 1 1
-14.4 1.3 2.9 201 0 1 3
-14.4 2.8 2.3 152 0 1 3
-14.4 4.3 1.6 155 0 1 3
-14.4 4.9 1 157 0 1 3
-14.3 -4.6 1.2 202 0 1 3
-14.3 -3.6 2 208 0 1 3
-14.3 -2.9 1.9 209 0 1 3
-14.3 0.6 0 205 0 1 1
-14.3 1.2 0 203 0 1 1
-14.3 1.4 3 133 0 1 3
-14.3 1.9 0 192 0 1 1
-14.3 2.5 -0.1 188 0 1 1
-14.3 3.2 -0.1 186 0 1 1
-14.3 9.6 -0.3 173 0 1 1
-14.3 10.3 -0.4 170 0 1 1
-14.3 10.9 -0.4 182 0 1 1
-14.3 11.6 -0.4 170 0 1 1
-14.3 12.2 -0.3 172 0 1 1
-14.3 12.9 -0.3 174 0 1 1
-14.3 13.5 -0.3 174 0 1 1
-14.3 14.1 -0.2 177 0 1 1
-14.2 -4.5 0.8 201 0 1 2
-14.2 -4.4 0.7 216 0 1 2
-14.2 -4.4 0.8 215 0 1 2
-14.2 -4.3 0.5 213 0 1 2
-14.2 -2 1.7 185 0 1 3
-14.2 1.1 2.9 123 0 1 3
-14.2 2.4 2.5 193 0 1 3
-14.2 4 1.9 104 0 1 3
-14.2 5.1 0.6 168 0 1 3
-14.1 -4.7 0.8 214 0 1 2
-14.1 -4.5 0.8 206 0 1 2
-14.1 -4.5 0.9 212 0 1 2
-14.1 -4.3 0.7 217 0 1 2
-14.1 -4.3 1.9 152 0 1 3
-14.1 -3.7 1.8 203 0 1 3
-14.1 -2.4 1.6 201 0 1 3
-14.1 5 0.7 134 0 1 3
-14 -5.2 0.7 217 0 1 3
-14 -4.7 0.8 214 0 1 2
-14 -4.6 0.9 215 0 1 2
-14 -4.5 0.8 212 0 1 2
-14 -4.4 0.8 216 0 1 2
-14 -4.3 0.6 212 0 1 2
-14 -4.2 0.4 211 0 1 2
-14 -1.9 1.3 192 0 1 3
-14 -1.9 1.4 196 0 1 3
-14 3.7 2.1 106 0 1 3
-14 5.3 0.3 158 0 1 3
-13.9 -6.5 0.5 166 0 1 1
-13.9 -5.9 0.5 167 0 1 1
-13.9 -5.2 0.5 206 0 1 1
-13.9 -4.8 0.8 216 0 1 2
-13.9 -4.7 0.8 217 0 1 2
-13.9 -4.6 0.8 214 0 1 2
-13.9 -4.5 0.7 215 0 1 2
-13.9 -4.4 0.7 220 0 1 2
-13.9 -4.4 1.7 178 0 1 3
-13.9 -4.3 0.6 219 0 1 2
-13.9 2.4 2.8 163 0 1 3
-13.9 5.1 0.6 102 0 1 3
-13.8 -4.8 0.7 211 0 1 2
-13.8 -4.7 0.7 212 0 1 2
-13.8 -4.6 0.6 209 0 1 2
-13.8 -4.6 0.7 214 0 1 2
-13.8 -4.5 0.6 213 0 1 2
-13.8 -4.5 0.7 208 0 1 2
-13.8 -4.3 0.5 215 0 1 2
-13.8 -4.3 0.6 213 0 1 2
-13.8 -3.9 0.4 218 0 1 1
-13.8 -3.3 0.3 210 0 1 1
-13.8 -3.2 1.5 205 0 1 3
-13.8 -2.8 1.4 203 0 1 3
-13.8 -2.6 0.3 205 0 1 1
-13.8 -1.9 1.3 187 0 1 3
-13.8 -0.7 0.1 162 0 1 1
-13.8 2.2 3 181 0 1 3
-13.8 2.3 2.9 126 0 1 3
-13.8 3.1 2.6 156 0 1 3
-13.8 3.3 2.5 158 0 1 3
-13.7 -5.2 0.7 216 0 1 3
-13.7 -4.9 0.5 211 0 1 2
-13.7 -4.8 0.6 215 0 1 2
-13.7 -4.6 0.6 215 0 1 2
-13.7 -4.4 0.5 211 0 1 2
-13.7 -4.3 0.4 209 0 1 2
-13.7 -4.3 0.5 215 0 1 2
-13.7 -4 1.5 205 0 1 3
-13.7 -2 1.3 194 0 1 3
-13.7 -0.1 0.1 205 0 1 1
-13.7 0.6 0 205 0 1 1
-13.7 1.2 0 205 0 1 1
-13.7 2.1 2.9 182 0 1 3
-13.7 2.9 2.7 164 0 1 3
-13.7 3.2 2.5 99 0 1 3
-13.7 5 0.5 133 0 1 3
-13.7 9.6 -0.4 175 0 1 1
-13.7 10.3 -0.4 172 0 1 1
-13.7 10.9 -0.4 179 0 1 1
-13.7 11.6 -0.4 176 0 1 1
-13.7 12.2 -0.4 174 0 1 1
-13.7 12.9 -0.4 172 0 1 1
-13.6 -5.2 0.7 203 0 1 3
-13.6 -4.7 0.5 209 0 1 2
-13.6 -4.6 0.5 210 0 1 2
-13.6 -4.5 0.5 211 0 1 2
-13.6 -4.5 1.5 202 0 1 3
-13.6 -3.3 1.3 210 0 1 3
-13.6 3.2 -0.1 188 0 1 1
-13.6 13.5 -0.3 170 0 1 1
-13.5 -5.1 0.9 195 0 1 3
-13.5 -4.6 1.4 188 0 1 3
-13.5 -4.5 1.4 207 0 1 3
-13.5 -3.8 1.3 209 0 1 3
-13.5 -2 1.1 184 0 1 3
-13.5 3.9 1.2 174 0 1 3
-13.4 -5.3 0.6 174 0 1 3
-13.4 -5.1 0.8 216 0 1 3
-13.4 -4.9 1 179 0 1 3
-13.4 -2.8 1.1 200 0 1 3
-13.4 1.9 2.8 190 0 1 3
-13.4 4.8 0.5 148 0 1 3
-13.3 -4.7 1.1 182 0 1 3
-13.2 -5.9 0.6 168 0 1 1
-13.2 -5.2 0.5 173 0 1 1
-13.2 -4.6 0.5 205 0 1 1
-13.2 -4.5 1.2 207 0 1 3
-13.2 -3.9 0.5 216 0 1 1
-13.2 -3.3 0.4 214 0 1 1
-13.2 -2.6 0.3 208 0 1 1
-13.2 -2 0.9 187 0 1 3
-13.2 -1.9 0.8 183 0 1 3
-13.1 -2 0.7 173 0 1 3
-13.1 -0.7 0.2 162 0 1 1
-13.1 -0.1 0.1 199 0 1 1
-13.1 0.6 0.1 201 0 1 1
-13.1 1.2 0 207 0 1 1
-13.1 2.1 2.7 183 0 1 3
-13 -2.2 0.8 197 0 1 3
-13 3.2 -0.1 186 0 1 1
-13 9 -0.4 171 0 1 1
-13 9.6 -0.4 168 0 1 1
-13 10.3 -0.5 172 0 1 1
-13 10.9 -0.5 174 0 1 1
-13 11.6 -0.5 185 0 1 1
-13 12.2 -0.4 173 0 1 1
-13 12.9 -0.4 170 0 1 1
-12.9 -4.1 0.9 209 0 1 3
-12.9 -3.8 0.9 209 0 1 3
-12.8 -4 0.7 212 0 1 3
-12.8 -3.8 0.8 213 0 1 3
-12.8 -3.7 0.8 212 0 1 3
-12.8 -3.1 0.7 214 0 1 3
-12.8 1.9 2.6 187 0 1 3
-12.7 -3.4 0.4 169 0 1 3
-12.7 -2.5 0.5 204 0 1 3
-12.7 -2.5 0.6 208 0 1 3
-12.7 -2.3 0.3 170 0 1 3
-12.7 -2.3 0.4 197 0 1 3
-12.7 -2 0 182 0 1 3
-12.6 -7.8 0.7 177 0 1 1
-12.6 -5.9 0.6 162 0 1 1
-12.6 -5.2 0.6 166 0 1 1
-12.6 -4.6 0.6 167 0 1 1
-12.6 -3.9 0.5 182 0 1 1
-12.6 -3.3 0.5 185 0 1 1
-12.6 -2.6 0.4 175 0 1 1
-12.6 3.7 0.8 176 0 1 3
-12.5 -0.7 0.2 168 0 1 1
-12.5 -0.1 0.2 168 0 1 1
-12.5 2 2.5 184 0 1 3
-12.5 2.2 2.5 175 0 1 3
-12.5 2.5 1.9 166 0 1 3
-12.5 3.8 0.2 154 0 1 3
-12.4 0.6 0.1 199 0 1 1
-12.4 1.2 0.1 203 0 1 1
-12.4 2.2 1.8 186 0 1 3
-12.4 2.6 1.5 176 0 1 3
-12.4 2.7 1.4 181 0 1 3
-12.4 2.7 1.5 181 0 1 3
-12.4 3.2 -0.1 185 0 1 1
-12.4 8.3 -0.4 180 0 1 1
-12.4 9 -0.4 176 0 1 1
-12.4 9.6 -0.5 168 0 1 1
-12.4 10.3 -0.5 170 0 1 1
-12.4 10.9 -0.5 174 0 1 1
-12.4 11.6 -0.5 181 0 1 1
-12.4 12.2 -0.5 174 0 1 1
-12.3 3.8 -0.1 178 0 1 1
-12 -9.1 0.7 186 0 1 1
-12 -7.8 0.7 177 0 1 1
-12 -7.1 0.7 170 0 1 1
-12 -5.2 0.7 168 0 1 1
-12 -4.6 0.6 168 0 1 1
-12 -3.9 0.6 168 0 1 1
-11.9 -3.3 0.5 169 0 1 1
-11.9 -2.6 0.5 170 0 1 1
-11.9 -0.7 0.3 168 0 1 1
-11.8 -0.1 0.2 168 0 1 1
-11.8 0.6 0.1 174 0 1 1
-11.7 2.5 0 174 0 1 1
-11.7 3.2 0 176 0 1 1
-11.7 3.8 -0.1 181 0 1 1
-11.7 4.5 -0.1 181 0 1 1
-11.7 5.1 -0.1 172 0 1 1
-11.7 5.8 -0.2 193 0 1 1
-11.7 6.4 -0.2 188 0 1 1
-11.7 7 -0.3 166 0 1 1
-11.7 7.7 -0.4 173 0 1 1
-11.7 8.3 -0.4 181 0 1 1
-11.7 9 -0.5 176 0 1 1
-11.7 9.6 -0.5 170 0 1 1
-11.7 10.3 -0.5 171 0 1 1
-11.7 10.9 -0.6 174 0 1 1
-11.7 11.6 -0.5 182 0 1 1
-11.4 -7.8 0.8 179 0 1 1
-11.4 -7.1 0.8 157 0 1 1
-11.4 -5.2 0.7 169 0 1 1
-11.3 -8.4 0.8 181 0 1 1
-11.3 -4.6 0.7 170 0 1 1
-11.3 -3.9 0.6 168 0 1 1
-11.3 -3.3 0.6 174 0 1 1
-11.3 -2.6 0.5 168 0 1 1
-11.2 -0.7 0.3 172 0 1 1
-11.2 -0.1 0.2 168 0 1 1
-11.2 0.6 0.2 171 0 1 1
-11.1 2.5 0 172 0 1 1
-11.1 3.2 0 177 0 1 1
-11.1 3.8 -0.1 182 0 1 1
-11.1 7.7 -0.4 174 0 1 1
-11.1 8.3 -0.5 181 0 1 1
-11.1 9 -0.5 175 0 1 1
-11.1 9.6 -0.5 168 0 1 1
-11.1 10.3 -0.6 169 0 1 1
-11.1 10.9 -0.6 173 0 1 1
-11 4.5 -0.1 180 0 1 1
-11 5.1 -0.2 175 0 1 1
-11 5.8 -0.2 196 0 1 1
-11 5.8 0.4 172 0 1 2
-11 6.4 -0.3 155 0 1 1
-11 7 -0.3 172 0 1 1
-10.9 5.6 0.4 177 0 1 2
-10.9 6 0.4 169 0 1 2
-10.8 5.5 0.4 178 0 1 2
-10.7 -9.7 0.8 190 0 1 1
-10.7 -9.1 0.8 188 0 1 1
-10.7 -8.4 0.8 174 0 1 1
-10.7 -7.8 0.8 182 0 1 1
-10.7 -7.1 0.9 178 0 1 1
-10.7 -6.5 0.8 174 0 1 1
-10.7 -4.6 0.7 172 0 1 1
-10.7 -3.9 0.7 171 0 1 1
-10.7 -3.3 0.6 173 0 1 1
-10.7 -2.6 0.5 171 0 1 1
-10.7 5.4 0.4 186 0 1 2
-10.7 5.8 0.4 178 0 1 2
-10.6 -2 0.5 171 0 1 1
-10.6 -0.7 0.3 174 0 1 1
-10.6 -0.1 0.2 175 0 1 1
-10.6 5.4 0.4 178 0 1 2
-10.6 6.1 0.4 171 0 1 2
-10.5 0.6 0.2 169 0 1 1
-10.5 5.3 0.4 179 0 1 2
-10.5 6.1 0.2 142 0 1 2
-10.4 2.5 0 173 0 1 1
-10.4 3.2 0 177 0 1 1
-10.4 3.8 -0.1 180 0 1 1
-10.4 4.5 -0.1 183 0 1 1
-10.4 5.1 -0.2 173 0 1 1
-10.4 5.2 0.4 178 0 1 2
-10.4 5.6 0.4 180 0 1 2
-10.4 5.6 0.5 180 0 1 2
-10.4 5.8 -0.2 141 0 1 1
-10.4 6.1 0.1 140 0 1 2
-10.4 6.4 -0.3 168 0 1 1
-10.4 7 -0.3 171 0 1 1
-10.4 7.7 -0.4 170 0 1 1
-10.4 8.3 -0.5 178 0 1 1
-10.4 9 -0.5 175 0 1 1
-10.4 9.6 -0.5 166 0 1 1
-10.4 10.3 -0.6 171 0 1 1
-10.3 5.9 0.4 157 0 1 2
-10.3 6 0.1 162 0 1 2
-10.3 6 0.3 160 0 1 2
-10.2 5.1 0.3 191 0 1 2
-10.2 5.1 0.4 194 0 1 2
-10.2 5.2 0.4 199 0 1 2
-10.2 5.8 0.5 175 0 1 2
-10.2 5.9 0.4 160 0 1 2
-10.1 -9.1 0.8 187 0 1 1
-10.1 -8.4 0.9 181 0 1 1
-10.1 -7.8 0.9 184 0 1 1
-10.1 -7.1 0.9 183 0 1 1
-10.1 -6.5 0.9 177 0 1 1
-10.1 -4.6 0.8 173 0 1 1
-10.1 -3.9 0.7 174 0 1 1
-10.1 5 0.3 186 0 1 2
-10.1 5.1 0.4 185 0 1 2
-10.1 5.3 0.4 190 0 1 2
-10.1 5.8 0.2 148 0 1 2
-10.1 5.8 0.3 172 0 1 2
-10 -9.7 0.8 183 0 1 1
-10 -3.3 0.6 172 0 1 1
-10 -2.6 0.6 175 0 1 1
-10 -2 0.5 214 0 1 1
-10 4.9 0.3 184 0 1 2
-10 5 0.1 195 0 1 2
-10 5 0.3 194 0 1 2
-10 5.6 0.4 179 0 1 2
-10 5.8 0.2 165 0 1 2
-9.9 -0.7 0.3 183 0 1 1
-9.9 -0.1 0.3 172 0 1 1
-9.9 0.6 0.2 172 0 1 1
-9.9 1.2 0.1 174 0 1 1
-9.9 5.3 0.4 201 0 1 2
-9.9 5.4 0.4 202 0 1 2
-9.9 5.5 0.1 172 0 1 2
-9.8 1.9 0.1 173 0 1 1
-9.8 2.5 0 174 0 1 1
-9.8 3.2 0 176 0 1 1
-9.8 3.8 -0.1 181 0 1 1
-9.8 5.1 0.1 192 0 1 2
-9.8 5.3 0.4 201 0 1 2
-9.8 5.4 0.2 176 0 1 2
-9.8 8.3 -0.5 175 0 1 1
-9.8 9 -0.5 175 0 1 1
-9.8 9.6 -0.5 168 0 1 1
-9.7 4.5 -0.1 182 0 1 1
-9.7 5.1 -0.2 177 0 1 1
-9.7 5.3 0.1 178 0 1 2
-9.7 5.8 -0.2 171 0 1 1
-9.7 6.4 -0.3 169 0 1 1
-9.7 7 -0.3 167 0 1 1
-9.7 7.7 -0.4 171 0 1 1
-9.6 -5 1.2 69 0 1 2
-9.6 -4.7 1.1 51 0 1 2
-9.6 -4.6 1 69 0 1 2
-9.6 -4.6 1.1 71 0 1 2
-9.5 -5.4 1.1 216 0 1 2
-9.5 -5 1.2 214 0 1 2
-9.5 -4.6 0.9 57 0 1 2
-9.5 -4.6 1 59 0 1 2
-9.5 -4.6 1.1 58 0 1 2
-9.4 -9.1 0.9 191 0 1 1
-9.4 -8.4 0.9 190 0 1 1
-9.4 -7.8 0.9 187 0 1 1
-9.4 -7.1 0.9 181 0 1 1
-9.4 -6.5 0.9 177 0 1 1
-9.4 -5.9 0.9 175 0 1 1
-9.4 -5 1.2 183 0 1 2
-9.4 -4.8 1.2 185 0 1 2
-9.4 -4.6 0.8 164 0 1 2
-9.4 -4.6 0.9 52 0 1 2
-9.4 -4.6 1 54 0 1 2
-9.4 -4.6 1.2 62 0 1 2
-9.4 -3.9 0.7 177 0 1 1
-9.4 -3.3 0.7 174 0 1 1
-9.4 -2.6 0.6 177 0 1 1
-9.3 -5.4 1.1 205 0 1 2
-9.3 -4.7 0.9 55 0 1 2
-9.3 -2 0.5 207 0 1 1
-9.3 -1.3 0.4 166 0 1 1
-9.3 -0.7 0.4 182 0 1 1
-9.3 -0.1 0.3 176 0 1 1
-9.2 -5.5 0.8 175 0 1 2
-9.2 -5.5 0.9 189 0 1 2
-9.2 -5.5 1 202 0 1 2
-9.2 -5.5 1.1 200 0 1 2
-9.2 -5.4 1 205 0 1 2
-9.2 -5.4 1.2 157 0 1 2
-9.2 -5.3 0.9 216 0 1 2
-9.2 -5.2 1.2 135 0 1 2
-9.2 -5 1.2 190 0 1 2
-9.2 -4.9 1.2 178 0 1 2
-9.2 -4.7 0.8 180 0 1 2
-9.2 -4.7 0.9 134 0 1 2
-9.2 -4.7 1 176 0 1 2
-9.2 -4.7 1.2 146 0 1 2
-9.2 0.6 0.2 176 0 1 1
-9.2 1.2 0.1 171 0 1 1
-9.2 1.9 0.1 177 0 1 1
-9.1 -5.2 0.8 175 0 1 2
-9.1 -5.1 0.8 174 0 1 2
-9.1 -5.1 1 212 0 1 2
-9.1 -5.1 1.1 220 0 1 2
-9.1 -5 1 214 0 1 2
-9.1 -4.9 0.9 206 0 1 2
-9.1 -4.9 1.1 217 0 1 2
-9.1 -4.7 1 195 0 1 2
-9.1 2.5 0 176 0 1 1
-9.1 3.2 0 176 0 1 1
-9.1 3.8 -0.1 181 0 1 1
-9.1 4.5 -0.1 186 0 1 1
-9.1 5.1 -0.2 180 0 1 1
-9.1 5.8 -0.2 173 0 1 1
-9.1 6.4 -0.3 171 0 1 1
-9.1 7 -0.3 171 0 1 1
-9.1 7.7 -0.4 172 0 1 1
-9.1 8.3 -0.4 175 0 1 1
-9.1 9 -0.5 176 0 1 1
-8.8 -8.4 0.9 195 0 1 1
-8.8 -7.8 0.9 191 0 1 1
-8.8 -7.1 1 184 0 1 1
-8.8 -6.5 0.9 187 0 1 1
-8.8 -5.9 0.9 183 0 1 1
-8.8 -5.2 0.9 180 0 1 1
-8.8 -4.6 0.8 179 0 1 1
-8.8 -3.9 0.7 180 0 1 1
-8.7 -3.3 0.7 178 0 1 1
-8.7 -2.6 0.6 179 0 1 1
-8.7 -2 0.5 182 0 1 1
-8.7 -1.3 0.4 201 0 1 1
-8.6 -0.7 0.4 184 0 1 1
-8.6 -0.1 0.3 181 0 1 1
-8.6 0.6 0.2 177 0 1 1
-8.6 1.2 0.1 176 0 1 1
-8.5 1.9 0.1 178 0 1 1
-8.5 2.5 0 177 0 1 1
-8.5 3.2 -0.1 178 0 1 1
-8.4 3.8 -0.1 183 0 1 1
-8.4 4.5 -0.1 190 0 1 1
-8.4 5.1 -0.2 180 0 1 1
-8.4 5.8 -0.2 174 0 1 1
-8.4 6.4 -0.3 166 0 1 1
-8.4 7 -0.3 166 0 1 1
-8.4 7.7 -0.4 167 0 1 1
-8.4 8.3 -0.4 172 0 1 1
-8.2 -1.4 0.8 164 0 1 2
-8.2 -1.3 0.7 177 0 1 2
-8.1 -7.8 0.9 190 0 1 1
-8.1 -7.1 0.9 187 0 1 1
-8.1 -6.5 0.9 186 0 1 1
-8.1 -5.9 0.9 186 0 1 1
-8.1 -5.2 0.8 182 0 1 1
-8.1 -4.6 0.8 179 0 1 1
-8.1 -3.9 0.7 177 0 1 1
-8.1 -3.3 0.7 184 0 1 1
-8.1 -2.6 0.6 179 0 1 1
-8.1 -2 0.5 182 0 1 1
-8.1 -1.9 0.5 181 0 1 2
-8.1 -1.8 0.6 189 0 1 2
-8.1 -1.3 0.8 171 0 1 2
-8.1 -1.2 0.7 169 0 1 2
-8 -1.8 0.6 198 0 1 2
-8 -1.7 0.8 195 0 1 2
-8 -1.3 0.4 198 0 1 1
-8 -0.7 0.4 188 0 1 1
-8 -0.1 0.3 184 0 1 1
-7.9 -1.8 0.5 205 0 1 2
-7.9 -1 0.7 170 0 1 2
-7.9 0.6 0.2 178 0 1 1
-7.9 1.2 0.1 173 0 1 1
-7.9 1.9 0 180 0 1 1
-7.8 -1 0.7 190 0 1 2
-7.8 -0.9 0.7 180 0 1 2
-7.8 2.5 0 177 0 1 1
-7.8 3.2 -0.1 179 0 1 1
-7.8 3.8 -0.1 180 0 1 1
-7.8 4.5 -0.1 187 0 1 1
-7.7 -1.6 0.9 204 0 1 2
-7.7 -1.1 0.8 167 0 1 2
-7.7 5.1 -0.2 183 0 1 1
-7.7 5.8 -0.2 179 0 1 1
-7.7 6.4 -0.2 170 0 1 1
-7.7 7.1 -0.3 170 0 1 1
-7.7 7.7 -0.3 175 0 1 1
-7.6 -1.7 0.6 206 0 1 2
-7.6 -1.6 0.7 213 0 1 2
-7.6 -1.2 0.8 183 0 1 2
-7.6 -0.8 0.7 175 0 1 2
-7.5 -7.1 0.9 194 0 1 1
-7.5 -6.5 0.9 192 0 1 1
-7.5 -5.9 0.9 186 0 1 1
-7.5 -5.2 0.8 185 0 1 1
-7.5 -3.9 0.7 190 0 1 1
-7.5 -1.6 0.6 211 0 1 2
-7.5 -1.5 0.9 208 0 1 2
-7.5 -1.4 0.9 193 0 1 2
-7.5 -0.8 0.5 183 0 1 2
-7.5 -0.8 0.6 81 0 1 2
-7.4 -3.3 0.7 186 0 1 1
-7.4 -2.6 0.6 188 0 1 1
-7.4 -2 0.5 182 0 1 1
-7.4 -1.5 0.8 211 0 1 2
-7.4 -1.4 0.8 194 0 1 2
-7.4 -1.3 0.4 212 0 1 1
-7.4 -1 0.8 167 0 1 2
-7.4 -0.7 0.7 163 0 1 2
-7.3 -1.5 0.5 211 0 1 2
-7.3 -1.5 0.7 215 0 1 2
-7.3 -0.8 0.5 176 0 1 2
-7.3 -0.8 0.7 124 0 1 2
-7.3 -0.7 0.3 192 0 1 1
-7.3 -0.7 0.6 144 0 1 2
-7.3 -0.1 0.3 188 0 1 1
-7.3 0.6 0.2 184 0 1 1
-7.2 -1.4 0.5 212 0 1 2
-7.2 -1.2 0.5 190 0 1 2
-7.2 -1.1 0.4 189 0 1 2
-7.2 -1 0.4 192 0 1 2
-7.2 -0.9 0.4 193 0 1 2
-7.2 -0.9 0.5 185 0 1 2
-7.2 -0.9 0.6 180 0 1 2
-7.2 -0.9 0.7 171 0 1 2
-7.2 1.2 0.1 181 0 1 1
-7.2 1.9 0 179 0 1 1
-7.2 2.5 0 179 0 1 1
-7.2 3.2 -0.1 178 0 1 1
-7.1 -1.3 0.5 212 0 1 2
-7.1 -1.2 0.8 180 0 1 2
-7.1 3.8 -0.1 183 0 1 1
-7.1 4.5 -0.2 182 0 1 1
-7.1 5.1 -0.2 192 0 1 1
-7.1 5.8 -0.2 175 0 1 1
-7.1 6.4 -0.2 166 0 1 1
-7.1 7.1 -0.2 175 0 1 1
-6.9 -4.3 1 182 0 1 2
-6.9 -4.2 1 181 0 1 2
-6.8 -6.5 0.9 193 0 1 1
-6.8 -5.9 0.8 192 0 1 1
-6.8 -5.2 0.8 185 0 1 1
-6.8 -4.4 1 184 0 1 2
-6.8 -4.1 1 167 0 1 2
-6.8 -3.9 0.7 190 0 1 1
-6.8 -3.3 0.6 190 0 1 1
-6.8 -2.6 0.6 185 0 1 1
-6.7 -4.5 1 207 0 1 2
-6.7 -4.3 1 187 0 1 2
-6.7 -4.2 1 185 0 1 2
-6.7 -4.1 1 161 0 1 2
-6.7 -4 0.7 119 0 1 2
-6.7 -4 0.8 157 0 1 2
-6.7 -4 0.9 54 0 1 2
-6.7 -2 0.5 189 0 1 1
-6.7 -1.3 0.4 184 0 1 1
-6.7 -0.7 0.3 192 0 1 1
-6.7 -0.1 0.2 187 0 1 1
-6.6 -4.7 0.9 207 0 1 2
-6.6 -4 0.7 51 0 1 2
-6.6 -4 0.8 70 0 1 2
-6.6 0.6 0.2 184 0 1 1
-6.6 1.2 0.1 182 0 1 1
-6.6 1.9 0 180 0 1 1
-6.5 -4.7 0.8 198 0 1 2
-6.5 -4.7 0.9 189 0 1 2
-6.5 -4.4 1 185 0 1 2
-6.5 -4.1 0.9 190 0 1 2
-6.5 -4.1 1 148 0 1 2
-6.5 -4 0.9 129 0 1 2
-6.5 2.5 0 179 0 1 1
-6.5 3.2 -0.1 183 0 1 1
-6.5 3.8 -0.1 183 0 1 1
-6.4 -4.6 0.7 190 0 1 2
-6.4 -4.6 0.8 200 0 1 2
-6.4 -4.6 1 201 0 1 2
-6.4 -4.5 0.7 188 0 1 2
-6.4 -4.5 0.9 201 0 1 2
-6.4 -4.5 1 192 0 1 2
-6.4 -4.4 1 192 0 1 2
-6.4 -4.3 1 209 0 1 2
-6.4 -4.2 1 186 0 1 2
-6.4 -4.1 0.7 186 0 1 2
-6.4 -4.1 0.8 161 0 1 2
-6.4 -4.1 0.9 139 0 1 2
-6.4 -4 0.7 57 0 1 2
-6.4 4.5 -0.1 186 0 1 1
-6.4 5.1 -0.1 185 0 1 1
-6.4 5.8 -0.1 180 0 1 1
-6.4 6.4 -0.1 177 0 1 1
-6.3 -4.3 0.7 185 0 1 2
-6.3 -4.3 1 206 0 1 2
-6.3 -4.2 1 192 0 1 2
-6.2 -5.9 0.8 198 0 1 1
-6.2 -5.2 0.8 192 0 1 1
-6.2 -4.6 0.7 192 0 1 1
-6.1 -3.9 0.7 188 0 1 1
-6.1 -3.3 0.6 192 0 1 1
-6.1 -2.6 0.5 191 0 1 1
-6.1 -2 0.5 189 0 1 1
-6 -0.7 0.3 193 0 1 1
-6 -0.1 0.2 186 0 1 1
-6 0.6 0.1 185 0 1 1
-5.9 1.2 0.1 184 0 1 1
-5.9 1.9 0 179 0 1 1
-5.9 2.5 -0.1 182 0 1 1
-5.8 2.9 0 166 0 1 2
-5.8 2.9 0.1 170 0 1 2
-5.8 3.1 0.1 166 0 1 2
-5.8 3.8 -0.1 188 0 1 1
-5.8 4.5 -0.1 185 0 1 1
-5.8 5.1 -0.1 187 0 1 1
-5.7 2.9 -0.1 181 0 1 2
-5.7 2.9 0.1 152 0 1 2
-5.7 5.8 -0.1 182 0 1 1
-5.6 2.8 -0.1 146 0 1 2
-5.6 2.8 0.1 163 0 1 2
-5.6 2.8 0.2 153 0 1 2
-5.6 3.2 0.2 184 0 1 2
-5.5 -5.2 0.7 193 0 1 1
-5.5 -4.6 0.7 189 0 1 1
-5.5 -3.9 0.6 189 0 1 1
-5.5 -3.3 0.5 188 0 1 1
-5.5 2.8 0.2 180 0 1 2
-5.5 3 0.2 183 0 1 2
-5.5 3.2 0.2 181 0 1 2
-5.5 3.3 0.2 185 0 1 2
-5.4 -2.6 0.5 191 0 1 1
-5.4 -2 0.4 186 0 1 1
-5.4 -0.7 0.3 196 0 1 1
-5.4 2.8 0.2 185 0 1 2
-5.4 2.9 0.2 189 0 1 2
-5.4 3.2 0.2 184 0 1 2
-5.4 3.3 0.2 184 0 1 2
-5.4 3.4 0.2 181 0 1 2
-5.3 -0.1 0.2 189 0 1 1
-5.3 0.6 0.1 187 0 1 1
-5.3 1.2 0 183 0 1 1
-5.3 2.8 0.2 187 0 1 2
-5.3 3.2 0.2 185 0 1 2
-5.3 3.4 0 153 0 1 2
-5.3 3.4 0.1 109 0 1 2
-5.2 1.9 0 185 0 1 1
-5.2 2.5 -0.1 184 0 1 1
-5.2 2.9 0 207 0 1 2
-5.2 2.9 0.1 216 0 1 2
-5.2 2.9 0.2 197 0 1 2
-5.2 3 0 213 0 1 2
-5.2 3 0.2 209 0 1 2
-5.2 3.1 0.2 207 0 1 2
-5.2 3.2 0.2 195 0 1 2
-5.2 3.3 0 111 0 1 2
-5.2 3.3 0.2 168 0 1 2
-5.2 3.4 0.2 171 0 1 2
-5.1 2.9 0 203 0 1 2
-5.1 3 -0.1 209 0 1 2
-5.1 3.1 0 194 0 1 2
-5.1 3.2 0 189 0 1 2
-5.1 3.2 0.1 197 0 1 2
-5.1 3.3 0 173 0 1 2
-5.1 3.8 -0.1 185 0 1 1
-5.1 4.5 -0.1 184 0 1 1
-5.1 5.2 -0.1 187 0 1 1
-4.8 -4.6 0.6 194 0 1 1
-4.8 -3.9 0.6 189 0 1 1
-4.8 -3.3 0.5 193 0 1 1
-4.8 -2.6 0.4 188 0 1 1
-4.8 -2 0.4 186 0 1 1
-4.7 -1.3 0.3 55 0 1 1
-4.7 -0.7 0.2 195 0 1 1
-4.7 -0.1 0.1 195 0 1 1
-4.6 0.6 0.1 193 0 1 1
-4.6 1.2 0 188 0 1 1
-4.6 1.9 -0.1 181 0 1 1
-4.5 2.5 -0.1 184 0 1 1
-4.5 3.2 -0.1 187 0 1 1
-4.5 3.8 -0.1 192 0 1 1
-4.5 4.5 -0.1 188 0 1 1
-4.2 -1.6 0.6 178 0 1 2
-4.2 -1.5 0.6 177 0 1 2
-4.2 -1.4 0.6 171 0 1 2
-4.1 -3.9 0.5 195 0 1 1
-4.1 -3.3 0.4 192 0 1 1
-4.1 -2.6 0.4 188 0 1 1
-4.1 -2 0.3 187 0 1 1
-4.1 -1.3 0.3 159 0 1 1
-4.1 -1.1 0.4 108 0 1 2
-4.1 -1.1 0.5 175 0 1 2
-4 -1.6 0.6 180 0 1 2
-4 -1.3 0.6 184 0 1 2
-4 -0.7 0.2 190 0 1 1
-4 -0.1 0.1 193 0 1 1
-4 0.6 0 191 0 1 1
-3.9 -1.6 0.6 182 0 1 2
-3.9 -1.6 0.7 184 0 1 2
-3.9 -1.4 0.7 187 0 1 2
-3.9 -1.3 0.6 187 0 1 2
-3.9 -1.2 0.6 191 0 1 2
-3.9 -1.1 0.5 52 0 1 2
-3.9 -1.1 0.6 183 0 1 2
-3.9 1.2 0 189 0 1 1
-3.9 1.9 -0.1 184 0 1 1
-3.9 2.5 -0.1 181 0 1 1
-3.8 -1.6 0.6 194 0 1 2
-3.8 -1.6 0.7 198 0 1 2
-3.8 -1.1 0.4 55 0 1 2
-3.8 -1.1 0.6 183 0 1 2
-3.8 3.2 -0.1 190 0 1 1
-3.8 3.9 -0.1 188 0 1 1
-3.7 -1.6 0.6 194 0 1 2
-3.7 -1.5 0.7 211 0 1 2
-3.7 -1.2 0.6 189 0 1 2
-3.7 -1.1 0.3 108 0 1 2
-3.7 -1.1 0.4 109 0 1 2
-3.7 -1.1 0.5 48 0 1 2
-3.7 -1.1 0.6 107 0 1 2
-3.6 -1.6 0.4 209 0 1 2
-3.6 -1.6 0.5 197 0 1 2
-3.6 -1.5 0.3 208 0 1 2
-3.6 -1.5 0.5 218 0 1 2
-3.6 -1.5 0.7 214 0 1 2
-3.6 -1.4 0.5 213 0 1 2
-3.6 -1.4 0.6 208 0 1 2
-3.6 -1.3 0.5 204 0 1 2
-3.6 -1.3 0.6 202 0 1 2
-3.6 -1.2 0.4 195 0 1 2
-3.6 -1.2 0.5 190 0 1 2
-3.6 -1.1 0.4 127 0 1 2
-3.6 -1.1 0.6 181 0 1 2
-3.5 -3.3 0.4 193 0 1 1
-3.5 -1.5 0.4 214 0 1 2
-3.5 -1.4 0.5 214 0 1 2
-3.5 -1.3 0.3 202 0 1 2
-3.5 -1.3 0.4 210 0 1 2
-3.5 -1.3 0.5 203 0 1 2
-3.5 -1.2 0.4 200 0 1 2
-3.4 -2.6 0.3 193 0 1 1
-3.4 -2 0.3 191 0 1 1
-3.4 -1.3 0.2 188 0 1 1
-3.4 -0.7 0.1 194 0 1 1
-3.3 -0.1 0.1 194 0 1 1
-3.3 0.6 0 191 0 1 1
-3.3 1.2 -0.1 188 0 1 1
-3.2 1.9 -0.1 187 0 1 1
-3.2 2.5 -0.1 188 0 1 1
-3.2 3.2 -0.1 190 0 1 1
-2.8 -2.6 0.3 195 0 1 1
-2.8 -2 0.2 196 0 1 1
-2.7 -1.3 0.2 188 0 1 1
0 2.3 2.9 126 0 1 3
