-20 20 0 91 0 1 1
-19.4 19.3 0 149 0 1 1
-19.4 20 0 95 0 1 1
-18.8 18.7 0 148 0 1 1
-18.8 19.3 0 149 0 1 1
-18.8 20 0 98 0 1 1
-18.1 18 0 155 0 1 1
-18.1 18.7 0 157 0 1 1
-18.1 19.3 0 149 0 1 1
-18.1 20 0 99 0 1 1
-17.5 17.4 0 163 0 1 1
-17.5 18 0 161 0 1 1
-17.5 18.7 0 154 0 1 1
-17.5 19.3 0 157 0 1 1
-17.5 20 0 99 0 1 1
-16.8 16.7 -0.1 168 0 1 1
-16.8 17.4 0 158 0 1 1
-16.8 18 0 163 0 1 1
-16.8 18.7 0 162 0 1 1
-16.8 19.3 0 156 0 1 1
-16.8 20 0 97 0 1 1
-16.2 16.1 -0.1 165 0 1 1
-16.2 16.7 -0.1 166 0 1 1
-16.2 17.4 0 159 0 1 1
-16.2 18 0 164 0 1 1
-16.2 18.7 0 162 0 1 1
-16.2 19.3 0 155 0 1 1
-16.2 20 0 98 0 1 1
-15.5 15.4 -0.1 169 0 1 1
-15.5 16.1 -0.1 165 0 1 1
-15.5 16.7 -0.1 166 0 1 1
-15.5 17.4 -0.1 167 0 1 1
-15.5 18 -0.1 162 0 1 1
-15.5 18.7 0 168 0 1 1
-15.5 19.3 0 160 0 1 1
-15.5 20 0 101 0 1 1
-14.9 14.8 -0.2 175 0 1 1
-14.9 15.4 -0.1 172 0 1 1
-14.9 16.1 -0.1 168 0 1 1
-14.9 16.7 -0.1 170 0 1 1
-14.9 17.4 -0.1 164 0 1 1
-14.9 18 -0.1 166 0 1 1
-14.9 18.7 0 172 0 1 1
-14.9 19.3 0 162 0 1 1
-14.9 20 0 101 0 1 1
-14.3 14.1 -0.2 181 0 1 1
-14.3 14.8 -0.2 178 0 1 1
-14.3 15.4 -0.2 171 0 1 1
-14.3 16.1 -0.1 173 0 1 1
-14.2 16.7 -0.1 168 0 1 1
-14.2 17.4 -0.1 169 0 1 1
-14.2 18 -0.1 160 0 1 1
-14.2 18.7 0 171 0 1 1
-14.2 19.3 0 165 0 1 1
-13.6 13.5 -0.3 172 0 1 1
-13.6 14.1 -0.3 181 0 1 1
-13.6 14.8 -0.2 182 0 1 1
-13.6 15.4 -0.2 171 0 1 1
-13.6 16.1 -0.1 172 0 1 1
-13.6 16.7 -0.1 169 0 1 1
-13.6 17.4 -0.1 169 0 1 1
-13.6 18 -0.1 163 0 1 1
-13 12.9 -0.4 171 0 1 1
-13 13.5 -0.4 173 0 1 1
-13 14.1 -0.3 180 0 1 1
-13 14.8 -0.3 182 0 1 1
-13 15.4 -0.2 172 0 1 1
-13 16.1 -0.1 173 0 1 1
-13 16.7 -0.1 171 0 1 1
-13 17.4 -0.1 171 0 1 1
-12.4 12.2 -0.5 177 0 1 1
-12.4 12.9 -0.4 175 0 1 1
-12.4 13.5 -0.4 174 0 1 1
-12.4 14.1 -0.3 179 0 1 1
-12.3 14.8 -0.3 176 0 1 1
-12.3 15.4 -0.2 181 0 1 1
-12.3 16.1 -0.2 172 0 1 1
-11.7 11.6 -0.5 185 0 1 1
-11.7 12.2 -0.5 180 0 1 1
-11.7 12.9 -0.5 178 0 1 1
-11.7 13.5 -0.4 175 0 1 1
-11.7 14.1 -0.4 178 0 1 1
-11.7 14.8 -0.3 178 0 1 1
-11.7 15.4 -0.2 187 0 1 1
-11.1 10.9 -0.6 178 0 1 1
-11.1 11.6 -0.6 179 0 1 1
-11.1 12.2 -0.5 180 0 1 1
-11.1 12.9 -0.5 175 0 1 1
-11.1 13.5 -0.4 173 0 1 1
-11.1 14.1 -0.4 176 0 1 1
-11.1 14.8 -0.3 119 0 1 1
-10.4 10.3 -0.6 176 0 1 1
-10.4 10.9 -0.6 179 0 1 1
-10.4 11.6 -0.6 178 0 1 1
-10.4 12.2 -0.5 185 0 1 1
-10.4 12.9 -0.5 175 0 1 1
-10.4 13.5 -0.4 173 0 1 1
-9.8 9.6 -0.5 172 0 1 1
-9.8 10.3 -0.6 175 0 1 1
-9.8 10.9 -0.6 174 0 1 1
-9.8 11.6 -0.6 178 0 1 1
-9.8 12.2 -0.5 185 0 1 1
-9.8 12.9 -0.5 175 0 1 1
-9.1 9 -0.5 181 0 1 1
-9.1 9.6 -0.5 178 0 1 1
-9.1 10.3 -0.5 172 0 1 1
-9.1 10.9 -0.5 176 0 1 1
-9.1 11.6 -0.5 176 0 1 1
-8.8 11.5 -0.3 113 0 1 3
-8.7 11.4 0 133 0 1 3
-8.6 11.4 0 117 0 1 3
-8.6 11.6 0.5 157 0 1 3
-8.5 11.7 1.1 86 0 1 3
-8.4 8.3 -0.4 179 0 1 1
-8.4 9 -0.5 185 0 1 1
-8.4 9.6 -0.5 175 0 1 1
-8.4 10.3 -0.5 174 0 1 1
-8.4 10.9 -0.5 176 0 1 1
-8.4 11.1 0.1 122 0 1 3
-8.3 11 -0.3 86 0 1 3
-8.3 11.2 0.6 125 0 1 3
-8.2 11.4 1.2 118 0 1 3
-8.1 10.8 0.1 158 0 1 3
-8 10.7 -0.2 170 0 1 3
-8 10.7 0 176 0 1 3
-8 10.8 0.4 150 0 1 3
-8 10.9 0.7 142 0 1 3
-8 11.2 1.3 116 0 1 3
-8 11.2 1.5 152 0 1 3
-7.9 11 1 144 0 1 3
-7.9 11 1.4 168 0 1 3
-7.9 11.1 1.4 164 0 1 3
-7.8 8.3 -0.4 176 0 1 1
-7.8 9 -0.4 184 0 1 1
-7.8 9.6 -0.4 175 0 1 1
-7.8 10.3 -0.5 177 0 1 1
-7.8 11.3 1.6 185 0 1 3
-7.8 20 -0.1 104 0 1 1
-7.7 7.7 -0.3 181 0 1 1
-7.7 11.5 1.7 174 0 1 3
-7.6 11.6 1.8 161 0 1 3
-7.5 11 1.1 185 0 1 3
-7.5 11.1 1.5 194 0 1 3
-7.5 11.8 1.8 178 0 1 3
-7.5 11.9 1.8 191 0 1 3
-7.4 10.9 0.9 189 0 1 3
-7.4 11 1.4 191 0 1 3
-7.4 11.1 1.5 193 0 1 3
-7.4 11.8 1.9 163 0 1 3
-7.4 11.9 1.8 192 0 1 3
-7.4 11.9 1.9 135 0 1 3
-7.3 10.8 0.2 177 0 1 3
-7.3 11.3 1.6 194 0 1 3
-7.3 11.9 1.9 167 0 1 3
-7.3 12 1.9 186 0 1 3
-7.1 7.1 -0.2 181 0 1 1
-7.1 7.7 -0.3 178 0 1 1
-7.1 8.4 -0.3 178 0 1 1
-7.1 9 -0.3 175 0 1 1
-7.1 9.6 -0.4 180 0 1 1
-7.1 10.3 -0.4 171 0 1 1
-7.1 10.6 -0.2 186 0 1 3
-7.1 11.7 1.7 190 0 1 3
-7.1 18.7 -0.1 175 0 1 1
-7.1 19.3 -0.1 173 0 1 1
-7.1 20 -0.1 102 0 1 1
-7 11 1.5 198 0 1 3
-7 11.6 1.7 192 0 1 3
-7 11.8 1.8 195 0 1 3
-7 12 1.9 197 0 1 3
-6.9 11 1.3 191 0 1 3
-6.9 11.1 1.5 197 0 1 3
-6.9 11.5 1.7 187 0 1 3
-6.9 12 1.9 195 0 1 3
-6.9 12.1 1.9 195 0 1 3
-6.8 10.9 1.1 197 0 1 3
-6.8 11 1.3 201 0 1 3
-6.8 11.1 1.5 192 0 1 3
-6.7 11 1.1 199 0 1 3
-6.7 11.1 1.5 194 0 1 3
-6.6 11 1.2 194 0 1 3
-6.6 11.1 1.3 195 0 1 3
-6.6 11.2 1.5 192 0 1 3
-6.6 12.2 1.9 167 0 1 3
-6.5 10.8 0.7 183 0 1 3
-6.5 10.9 1 191 0 1 3
-6.5 11.3 1.5 187 0 1 3
-6.5 11.9 1.7 189 0 1 3
-6.5 12 1.8 186 0 1 3
-6.5 12.1 1.7 187 0 1 3
-6.5 12.1 1.9 187 0 1 3
-6.5 12.2 1.8 184 0 1 3
-6.5 12.3 1.8 141 0 1 3
-6.5 12.4 1.7 152 0 1 3
-6.5 17.4 -0.1 180 0 1 1
-6.5 18 -0.1 143 0 1 1
-6.5 18.7 -0.1 138 0 1 1
-6.5 19.3 -0.1 161 0 1 1
-6.5 20 -0.1 161 0 1 1
-6.4 7.1 -0.2 173 0 1 1
-6.4 7.7 -0.2 173 0 1 1
-6.4 8.4 -0.2 179 0 1 1
-6.4 9 -0.2 173 0 1 1
-6.4 10.9 1 192 0 1 3
-6.4 11 1 194 0 1 3
-6.4 11.3 1.5 187 0 1 3
-6.4 11.8 1.7 190 0 1 3
-6.4 12.1 1.7 185 0 1 3
-6.3 11.1 1.1 197 0 1 3
-6.3 11.2 1.3 200 0 1 3
-6.3 11.2 1.5 193 0 1 3
-6.3 11.3 1.5 190 0 1 3
-6.3 11.8 1.7 182 0 1 3
-6.3 12.5 1.7 172 0 1 3
-6.2 10.7 0.3 184 0 1 3
-6.2 10.8 0.5 186 0 1 3
-6.2 10.8 0.6 185 0 1 3
-6.2 10.8 0.7 193 0 1 3
-6.2 10.9 0.8 195 0 1 3
-6.2 10.9 0.9 195 0 1 3
-6.2 11.5 1.6 185 0 1 3
-6.2 11.6 1.6 190 0 1 3
-6.2 12 1.6 186 0 1 3
-6.2 12.2 1.7 183 0 1 3
-6.2 12.5 1.7 140 0 1 3
-6.2 12.6 1.6 165 0 1 3
-6.1 10.7 0.2 184 0 1 3
-6.1 10.7 0.3 185 0 1 3
-6.1 10.7 0.4 187 0 1 3
-6.1 10.8 0.5 193 0 1 3
-6.1 10.8 0.6 200 0 1 3
-6.1 10.9 0.8 200 0 1 3
-6.1 10.9 0.9 198 0 1 3
-6.1 12.1 1.6 180 0 1 3
-6.1 12.7 1.6 169 0 1 3
-6 10.6 -0.2 183 0 1 3
-6 10.7 0.1 188 0 1 3
-6 10.7 0.3 183 0 1 3
-6 10.8 0.4 190 0 1 3
-6 10.8 0.6 197 0 1 3
-6 10.9 0.8 198 0 1 3
-6 10.9 0.9 196 0 1 3
-6 11.1 1 195 0 1 3
-6 11.2 1 187 0 1 3
-6 11.2 1.2 195 0 1 3
-6 11.3 1.4 195 0 1 3
-6 11.3 1.5 194 0 1 3
-6 11.4 1.5 191 0 1 3
-6 11.5 1.5 176 0 1 3
-6 12.7 1.5 146 0 1 3
-6 12.7 1.6 154 0 1 3
-5.9 10.6 -0.2 173 0 1 3
-5.9 10.6 -0.1 182 0 1 3
-5.9 11.1 0.7 197 0 1 3
-5.9 11.2 0.9 193 0 1 3
-5.9 11.2 1 193 0 1 3
-5.9 11.3 1 188 0 1 3
-5.9 11.3 1.3 186 0 1 3
-5.9 11.4 1.5 193 0 1 3
-5.9 11.5 1.3 195 0 1 3
-5.9 11.5 1.5 190 0 1 3
-5.9 11.6 1.5 186 0 1 3
-5.9 12.1 1.5 179 0 1 3
-5.9 12.4 1.4 174 0 1 3
-5.9 12.9 1.4 168 0 1 3
-5.9 13.1 1.2 168 0 1 3
-5.9 13.3 1.2 159 0 1 3
-5.8 10.3 -0.2 173 0 1 1
-5.8 11 -0.2 177 0 1 1
-5.8 11.1 0.3 190 0 1 3
-5.8 11.3 0.6 194 0 1 3
-5.8 11.5 1 184 0 1 3
-5.8 11.5 1.3 193 0 1 3
-5.8 11.6 1.1 186 0 1 3
-5.8 11.6 1.3 188 0 1 3
-5.8 12.4 1.2 184 0 1 3
-5.8 12.5 1.1 185 0 1 3
-5.8 13.4 1.1 154 0 1 3
-5.8 13.5 1 122 0 1 3
-5.8 13.6 0.9 85 0 1 3
-5.8 13.7 0.8 168 0 1 3
-5.8 16.1 -0.1 178 0 1 1
-5.8 16.7 -0.1 171 0 1 1
-5.8 17.4 -0.1 66 0 1 1
-5.7 6.4 -0.1 180 0 1 1
-5.7 7.1 -0.1 177 0 1 1
-5.7 7.7 -0.1 176 0 1 1
-5.7 11 -0.2 177 0 1 3
-5.7 11.6 0.9 182 0 1 3
-5.7 11.7 0.9 182 0 1 3
-5.7 11.7 1.1 178 0 1 3
-5.7 12.6 0.9 180 0 1 3
-5.7 12.8 0.8 181 0 1 3
-5.7 13.8 0.7 153 0 1 3
-5.7 13.9 0.6 183 0 1 3
-5.7 14 0.5 180 0 1 3
-5.6 11.5 0.2 185 0 1 3
-5.6 11.6 0.5 199 0 1 3
-5.6 11.7 0.8 182 0 1 3
-5.6 11.8 0.7 192 0 1 3
-5.6 11.8 0.8 185 0 1 3
-5.6 12.4 0.7 181 0 1 3
-5.6 12.9 0.6 179 0 1 3
-5.6 13 0.6 184 0 1 3
-5.6 13.5 0.5 183 0 1 3
-5.6 14 0.4 179 0 1 3
-5.5 13.5 0.5 188 0 1 3
-5.5 14 0.4 181 0 1 3
-5.4 12 0.2 179 0 1 3
-5.4 12.1 0.5 189 0 1 3
-5.4 12.7 0.4 186 0 1 3
-5.4 13.4 0.4 192 0 1 3
-5.4 13.9 0.3 183 0 1 3
-5.3 11.8 -0.2 171 0 1 3
-5.3 13.9 0.2 181 0 1 3
-5.2 4.9 0 181 0 1 2
-5.2 4.9 0.1 184 0 1 2
-5.2 12.4 0.3 182 0 1 3
-5.2 13.2 0.3 194 0 1 3
-5.2 13.6 0.2 182 0 1 3
-5.2 13.8 0.2 186 0 1 3
-5.2 15.9 0.2 58 0 1 3
-5.1 4.9 0.1 179 0 1 2
-5.1 4.9 0.2 184 0 1 2
-5.1 4.9 0.3 175 0 1 2
-5.1 5.1 0.3 176 0 1 2
-5.1 5.8 0 190 0 1 1
-5.1 6.5 0 181 0 1 1
-5.1 7.1 0 179 0 1 1
-5.1 9.1 0 174 0 1 1
-5.1 9.7 0 177 0 1 1
-5.1 10.3 -0.1 177 0 1 1
-5.1 11 -0.1 172 0 1 1
-5.1 11.6 -0.2 170 0 1 1
-5.1 12.2 -0.2 175 0 1 1
-5.1 12.4 0 174 0 1 3
-5.1 12.9 0.2 171 0 1 3
-5.1 13.7 0.1 181 0 1 3
-5.1 13.8 0 157 0 1 3
-5.1 13.8 0.1 179 0 1 3
-5.1 13.9 0 180 0 1 3
-5.1 14 -0.1 173 0 1 3
-5.1 14.1 -0.2 183 0 1 1
-5.1 14.8 -0.2 179 0 1 1
-5.1 15.4 -0.2 179 0 1 1
-5.1 15.7 -0.1 56 0 1 3
-5.1 15.8 0.4 58 0 1 3
-5.1 15.8 0.7 70 0 1 3
-5.1 15.9 -0.1 111 0 1 3
-5.1 15.9 0.7 63 0 1 3
-5 4.9 0 168 0 1 2
-5 4.9 0.1 190 0 1 2
-5 4.9 0.2 168 0 1 2
-5 4.9 0.3 175 0 1 2
-5 5 0.3 181 0 1 2
-5 5.2 0.3 186 0 1 2
-5 5.3 0.3 176 0 1 2
-5 7.2 0 162 0 1 2
-5 7.2 0.1 167 0 1 2
-5 7.2 0.2 166 0 1 2
-5 7.2 0.3 178 0 1 2
-5 7.4 0.3 176 0 1 2
-5 12.4 -0.2 175 0 1 3
-5 12.9 -0.1 164 0 1 3
-5 13.4 -0.2 174 0 1 3
-5 13.4 0.1 174 0 1 3
-5 15.5 0.9 65 0 1 3
-5 15.6 0.3 59 0 1 3
-5 15.6 0.8 67 0 1 3
-5 15.7 0.2 56 0 1 3
-4.9 5 0.3 191 0 1 2
-4.9 5.1 0.3 181 0 1 2
-4.9 5.1 0.4 182 0 1 2
-4.9 5.2 0.3 194 0 1 2
-4.9 5.2 0.4 184 0 1 2
-4.9 5.3 0.3 183 0 1 2
-4.9 7.1 0 180 0 1 2
-4.9 7.1 0.1 117 0 1 2
-4.9 7.1 0.2 156 0 1 2
-4.9 7.1 0.3 139 0 1 2
-4.9 15.5 1 64 0 1 3
-4.9 15.5 1.1 72 0 1 3
-4.8 4.8 0 168 0 1 2
-4.8 4.8 0.1 193 0 1 2
-4.8 4.9 0.1 204 0 1 2
-4.8 5 0.3 192 0 1 2
-4.8 5.1 0.3 185 0 1 2
-4.8 5.2 0.2 193 0 1 2
-4.8 5.3 0.2 180 0 1 2
-4.8 5.4 0.1 183 0 1 2
-4.8 5.4 0.2 183 0 1 2
-4.8 7.1 0.3 171 0 1 2
-4.8 7.4 0.3 179 0 1 2
-4.8 15.2 2.1 70 0 1 3
-4.8 15.3 0.3 65 0 1 3
-4.8 15.3 0.9 72 0 1 3
-4.8 15.3 1.6 65 0 1 3
-4.8 15.4 0.2 59 0 1 3
-4.7 4.8 0 190 0 1 2
-4.7 4.9 0.2 199 0 1 2
-4.7 5 0.2 185 0 1 2
-4.7 5.1 0.2 184 0 1 2
-4.7 5.2 0.1 189 0 1 2
-4.7 5.2 0.2 185 0 1 2
-4.7 5.3 0.1 183 0 1 2
-4.7 5.4 0 181 0 1 2
-4.7 5.4 0.1 189 0 1 2
-4.7 7 0.3 181 0 1 2
-4.7 7.1 0.3 181 0 1 2
-4.7 7.1 0.4 188 0 1 2
-4.7 7.3 0.4 179 0 1 2
-4.7 15 2.1 71 0 1 3
-4.7 15.1 0.8 74 0 1 3
-4.7 15.1 1.4 67 0 1 3
-4.7 15.2 0.2 73 0 1 3
-4.6 4.8 0 205 0 1 2
-4.6 4.9 0.1 199 0 1 2
-4.6 4.9 0.2 198 0 1 2
-4.6 5 0.1 194 0 1 2
-4.6 5.1 0.1 191 0 1 2
-4.6 5.3 0 190 0 1 2
-4.6 5.4 0 185 0 1 2
-4.6 7 0.3 172 0 1 2
-4.6 7.1 0.4 183 0 1 2
-4.6 7.4 0.4 182 0 1 2
-4.6 7.5 0.3 180 0 1 2
-4.6 7.5 0.4 183 0 1 2
-4.6 14.9 2.1 171 0 1 3
-4.6 15 1.4 71 0 1 3
-4.5 4.5 -0.1 190 0 1 1
-4.5 5 0.1 187 0 1 2
-4.5 5.1 0 185 0 1 2
-4.5 5.2 0 178 0 1 2
-4.5 7 0.2 186 0 1 2
-4.5 7 0.3 189 0 1 2
-4.5 7.1 0.4 185 0 1 2
-4.5 7.4 0.4 185 0 1 2
-4.5 7.5 0.3 175 0 1 2
-4.5 14.2 -0.2 182 0 1 1
-4.5 14.8 -0.2 178 0 1 1
-4.5 14.8 1.9 179 0 1 3
-4.5 14.9 0.2 71 0 1 3
-4.5 14.9 0.8 80 0 1 3
-4.5 14.9 1.2 73 0 1 3
-4.4 5.2 0 189 0 1 1
-4.4 5.8 0 192 0 1 1
-4.4 6.5 0.1 184 0 1 1
-4.4 7 0.2 195 0 1 2
-4.4 7.1 0.2 200 0 1 2
-4.4 7.1 0.3 200 0 1 2
-4.4 7.1 0.4 189 0 1 2
-4.4 7.2 0.4 188 0 1 2
-4.4 7.3 0.4 183 0 1 2
-4.4 7.5 0.3 178 0 1 2
-4.4 7.8 0.1 179 0 1 1
-4.4 8.4 0.1 173 0 1 1
-4.4 9.1 0.1 180 0 1 1
-4.4 9.7 0.1 178 0 1 1
-4.4 10.4 0 178 0 1 1
-4.4 11 0 175 0 1 1
-4.4 11.6 -0.1 173 0 1 1
-4.4 12.3 -0.1 167 0 1 1
-4.4 12.9 -0.2 175 0 1 1
-4.4 13.5 -0.2 180 0 1 1
-4.3 7.2 0.2 197 0 1 2
-4.3 7.3 0.2 182 0 1 2
-4.3 7.4 0.2 183 0 1 2
-4.3 14.6 0.4 127 0 1 3
-4.3 14.6 0.9 144 0 1 3
-4.3 14.6 1.2 146 0 1 3
-4.3 14.6 1.3 124 0 1 3
-4.3 14.6 1.7 136 0 1 3
-4.3 14.7 -0.2 115 0 1 3
-4.3 14.7 -0.1 103 0 1 3
-4.2 14.6 1.6 146 0 1 3
-4.2 14.9 2.1 125 0 1 3
-4.2 15 2.1 176 0 1 3
-4 14.5 0.8 162 0 1 3
-4 14.5 1.2 161 0 1 3
-4 14.7 2 186 0 1 3
-3.9 15.2 2.2 183 0 1 3
-3.8 3.9 -0.1 191 0 1 1
-3.8 4.5 0 193 0 1 1
-3.8 5.2 0.1 190 0 1 1
-3.8 5.8 0.1 192 0 1 1
-3.8 6.5 0.2 186 0 1 1
-3.8 7.2 0.2 182 0 1 1
-3.8 7.8 0.2 179 0 1 1
-3.8 8.5 0.2 174 0 1 1
-3.8 9.1 0.2 181 0 1 1
-3.8 9.7 0.2 176 0 1 1
-3.8 10.4 0.1 181 0 1 1
-3.8 11 0.1 174 0 1 1
-3.8 11.6 0 173 0 1 1
-3.8 12.3 -0.1 173 0 1 1
-3.8 12.9 -0.1 178 0 1 1
-3.8 13.5 -0.2 175 0 1 1
-3.8 14.2 -0.2 181 0 1 1
-3.8 14.5 0.3 170 0 1 3
-3.8 14.6 -0.1 161 0 1 3
-3.7 14.5 0.7 171 0 1 3
-3.7 14.5 1.8 175 0 1 3
-3.7 14.8 2.2 152 0 1 3
-3.6 14.5 1.7 156 0 1 3
-3.6 14.8 2.2 162 0 1 3
-3.5 14.5 0.3 173 0 1 3
-3.4 14.4 1.3 171 0 1 3
-3.4 14.6 2 184 0 1 3
-3.4 14.8 2.2 179 0 1 3
-3.4 14.9 2.2 201 0 1 3
-3.3 14.4 -0.2 177 0 1 3
-3.3 14.4 1.2 169 0 1 3
-3.2 3.2 -0.1 191 0 1 1
-3.2 3.9 0 190 0 1 1
-3.2 14.6 2 194 0 1 3
-3.2 14.9 2.2 183 0 1 3
-3.1 4.5 0 192 0 1 1
-3.1 5.2 0.1 189 0 1 1
-3.1 5.9 0.2 196 0 1 1
-3.1 6.5 0.2 189 0 1 1
-3.1 7.2 0.3 185 0 1 1
-3.1 7.8 0.3 178 0 1 1
-3.1 8.5 0.3 180 0 1 1
-3.1 9.1 0.3 182 0 1 1
-3.1 9.8 0.3 175 0 1 1
-3.1 10.4 0.2 182 0 1 1
-3.1 11 0.2 176 0 1 1
-3.1 11.7 0.1 173 0 1 1
-3.1 12.3 0 173 0 1 1
-3.1 12.9 -0.1 170 0 1 1
-3.1 13.5 -0.1 178 0 1 1
-3.1 14.2 -0.2 175 0 1 1
-3.1 14.4 0.7 171 0 1 3
-3.1 14.4 1.8 179 0 1 3
-3.1 15.5 2.2 196 0 1 3
-3 14.3 1.7 178 0 1 3
-3 14.4 -0.2 179 0 1 3
-3 14.4 0.7 173 0 1 3
-3 14.7 2 195 0 1 3
-3 15 2.2 198 0 1 3
-3 15.1 2.3 183 0 1 3
-3 15.2 2.3 137 0 1 3
-2.9 14.3 1.7 169 0 1 3
-2.9 15 2.1 204 0 1 3
-2.9 15.2 2.2 193 0 1 3
-2.9 15.4 2.2 180 0 1 3
-2.8 16.1 2.2 159 0 1 3
-2.8 16.7 2.2 142 0 1 3
-2.7 15.9 2.1 199 0 1 3
-2.6 14.3 0.8 172 0 1 3
-2.6 14.4 -0.1 173 0 1 3
-2.5 3.2 -0.1 194 0 1 1
-2.5 3.9 0 185 0 1 1
-2.5 4.5 0.1 189 0 1 1
-2.5 5.2 0.2 194 0 1 1
-2.5 5.9 0.2 195 0 1 1
-2.5 6.5 0.3 191 0 1 1
-2.5 11.7 0.1 175 0 1 1
-2.5 12.3 0 174 0 1 1
-2.5 12.9 0 174 0 1 1
-2.5 13.5 -0.1 174 0 1 1
-2.5 14.2 -0.2 181 0 1 1
-2.5 14.3 1.5 193 0 1 3
-2.5 14.8 -0.2 179 0 1 1
-2.5 15.3 2.1 193 0 1 3
-2.4 7.2 0.3 185 0 1 1
-2.4 7.9 0.4 184 0 1 1
-2.4 8.5 0.4 183 0 1 1
-2.4 9.1 0.4 179 0 1 1
-2.4 9.8 0.3 178 0 1 1
-2.4 10.4 0.3 180 0 1 1
-2.4 11 0.2 181 0 1 1
-2.4 14.3 1.5 176 0 1 3
-2.3 14.4 1.5 199 0 1 3
-2.2 14.4 -0.1 185 0 1 3
-2.2 14.7 1.7 194 0 1 3
-2.1 14.3 0.6 185 0 1 3
-2.1 14.4 -0.1 186 0 1 3
-2 14.3 0.5 189 0 1 3
-2 14.4 -0.1 188 0 1 3
-2 15.6 2.1 126 0 1 3
-1.9 3.2 0 190 0 1 1
-1.9 3.9 0 195 0 1 1
-1.9 14.3 0.5 188 0 1 3
-1.9 14.3 1.3 192 0 1 3
-1.9 14.8 -0.2 182 0 1 1
-1.8 4.6 0.1 186 0 1 1
-1.8 5.2 0.2 197 0 1 1
-1.8 5.9 0.3 199 0 1 1
-1.8 6.6 0.3 194 0 1 1
-1.8 7.2 0.4 185 0 1 1
-1.8 7.9 0.4 186 0 1 1
-1.8 8.5 0.5 181 0 1 1
-1.8 9.2 0.4 180 0 1 1
-1.8 9.8 0.4 180 0 1 1
-1.8 10.4 0.3 179 0 1 1
-1.8 11.1 0.3 176 0 1 1
-1.8 11.7 0.2 179 0 1 1
-1.8 12.3 0.1 175 0 1 1
-1.8 12.9 0 174 0 1 1
-1.8 13.5 -0.1 176 0 1 1
-1.8 14.2 -0.1 179 0 1 1
-1.8 14.3 1.1 187 0 1 3
-1.8 14.3 1.2 184 0 1 3
-1.8 14.5 -0.1 169 0 1 3
-1.8 15 1.7 194 0 1 3
-1.7 14.4 0.6 185 0 1 3
-1.7 14.4 1.2 201 0 1 3
-1.6 14.4 1.2 194 0 1 3
-1.6 14.5 0 181 0 1 3
-1.6 14.6 -0.1 181 0 1 3
-1.6 15.1 1.7 205 0 1 3
-1.5 14.4 1.2 196 0 1 3
-1.5 14.5 0.6 184 0 1 3
-1.5 15.2 1.7 203 0 1 3
-1.4 15.6 1.9 197 0 1 3
-1.4 15.8 2 176 0 1 3
-1.3 14.5 1.2 189 0 1 3
-1.3 14.6 0.6 188 0 1 3
-1.3 14.7 0 179 0 1 3
-1.2 3.2 0 194 0 1 1
-1.2 3.9 0.1 193 0 1 1
-1.2 4.6 0.1 197 0 1 1
-1.2 5.2 0.2 196 0 1 1
-1.2 5.9 0.3 199 0 1 1
-1.2 6.6 0.4 193 0 1 1
-1.2 11.7 0.2 177 0 1 1
-1.2 12.3 0.1 179 0 1 1
-1.2 12.9 0 175 0 1 1
-1.2 13.5 -0.1 175 0 1 1
-1.2 14.2 -0.1 179 0 1 1
-1.2 14.8 -0.2 175 0 1 1
-1.2 15.4 -0.2 187 0 1 1
-1.2 16.9 1.9 198 0 1 3
-1.1 7.2 0.4 191 0 1 1
-1.1 7.9 0.5 188 0 1 1
-1.1 8.5 0.5 189 0 1 1
-1.1 9.2 0.5 183 0 1 1
-1.1 9.8 0.4 177 0 1 1
-1.1 10.4 0.3 180 0 1 1
-1.1 11.1 0.3 182 0 1 1
-1.1 14.6 1.2 191 0 1 3
-1.1 14.7 0.6 184 0 1 3
-1.1 14.7 0.9 182 0 1 3
-1.1 14.8 0 181 0 1 3
-1.1 14.8 0.3 181 0 1 3
-1 14.7 0.7 177 0 1 3
-1 14.7 1.2 196 0 1 3
-1 14.8 1 177 0 1 3
-1 14.8 1.2 185 0 1 3
-1 15.3 -0.1 173 0 1 3
-1 15.3 0.3 171 0 1 3
-0.9 15.2 1.2 169 0 1 3
-0.9 15.2 1.4 191 0 1 3
-0.9 15.8 -0.1 179 0 1 3
-0.8 15.6 1.7 189 0 1 3
-0.8 15.7 0.8 169 0 1 3
-0.8 16.4 -0.1 175 0 1 3
-0.7 15.9 1.8 175 0 1 3
-0.7 16.1 1.9 165 0 1 3
-0.7 16.4 0.1 173 0 1 3
-0.7 16.4 1 177 0 1 3
-0.7 18.7 -0.1 178 0 1 1
-0.7 19.3 -0.1 186 0 1 1
-0.7 20 -0.1 169 0 1 1
-0.6 3.2 0 195 0 1 1
-0.6 3.9 0.1 191 0 1 1
-0.6 14.8 -0.2 179 0 1 1
-0.6 15.4 -0.2 183 0 1 1
-0.6 16.1 -0.2 181 0 1 1
-0.6 16.6 1.1 170 0 1 3
-0.6 16.6 1.3 166 0 1 3
-0.6 16.6 1.9 150 0 1 3
-0.6 16.7 -0.2 180 0 1 1
-0.6 17 0.1 174 0 1 3
-0.6 17.1 0.3 155 0 1 3
-0.6 17.1 0.5 99 0 1 3
-0.6 17.4 -0.2 178 0 1 1
-0.6 18 -0.1 178 0 1 1
-0.5 4.6 0.1 194 0 1 1
-0.5 5.2 0.2 195 0 1 1
-0.5 5.9 0.3 198 0 1 1
-0.5 6.6 0.4 194 0 1 1
-0.5 7.2 0.5 194 0 1 1
-0.5 7.9 0.5 191 0 1 1
-0.5 8.5 0.5 185 0 1 1
-0.5 9.2 0.5 182 0 1 1
-0.5 9.8 0.4 181 0 1 1
-0.5 11.1 0.3 180 0 1 1
-0.5 11.7 0.2 180 0 1 1
-0.5 13.6 -0.1 178 0 1 1
-0.5 14.2 -0.1 180 0 1 1
-0.5 17.1 1.3 108 0 1 3
-0.5 17.1 1.8 145 0 1 3
-0.5 17.2 0.8 134 0 1 3
-0.5 17.2 1.1 160 0 1 3
-0.5 17.2 1.4 127 0 1 3
-0.5 17.2 1.6 142 0 1 3
0 16.1 -0.2 190 0 1 1
0 16.7 -0.2 182 0 1 1
0 17.4 -0.2 179 0 1 1
0 18 -0.1 172 0 1 1
0 18.7 -0.1 182 0 1 1
0 19.3 -0.1 178 0 1 1
0 20 -0.1 173 0 1 1
0.1 3.2 0 194 0 1 1
0.1 3.9 0.1 195 0 1 1
0.1 4.6 0.1 196 0 1 1
0.1 5.2 0.2 191 0 1 1
0.1 5.9 0.3 200 0 1 1
0.1 6.6 0.4 192 0 1 1
0.1 7.2 0.4 193 0 1 1
0.1 7.9 0.5 193 0 1 1
0.1 10.4 0.3 180 0 1 1
0.1 11.7 0.2 180 0 1 1
0.1 12.9 0 179 0 1 1
0.1 14.2 -0.1 180 0 1 1
0.1 15.4 -0.2 182 0 1 1
0.2 8.5 0.5 188 0 1 1
0.2 9.2 0.5 184 0 1 1
0.2 9.8 0.4 186 0 1 1
0.6 18 -0.1 177 0 1 1
0.6 18.7 -0.1 178 0 1 1
0.6 19.3 -0.1 180 0 1 1
0.6 20 -0.1 178 0 1 1
0.7 3.2 0 192 0 1 1
0.7 3.9 0 199 0 1 1
0.7 4.6 0.1 195 0 1 1
0.7 9.1 0.5 158 0 1 2
0.7 9.2 0.6 137 0 1 2
0.7 9.3 0.5 175 0 1 2
0.7 9.3 0.6 168 0 1 2
0.7 14.2 -0.1 177 0 1 1
0.7 14.8 -0.2 180 0 1 1
0.7 15.4 -0.2 180 0 1 1
0.7 16.1 -0.2 185 0 1 1
0.7 16.7 -0.2 182 0 1 1
0.7 17.4 -0.1 183 0 1 1
0.8 5.2 0.2 192 0 1 1
0.8 5.9 0.3 197 0 1 1
0.8 6.6 0.3 199 0 1 1
0.8 7.2 0.4 193 0 1 1
0.8 7.9 0.4 192 0 1 1
0.8 8.5 0.5 188 0 1 1
0.8 8.8 0.4 189 0 1 2
0.8 9.2 0.8 182 0 1 2
0.8 9.3 0.7 129 0 1 2
0.8 9.3 0.8 151 0 1 2
0.8 11.1 0.3 182 0 1 1
0.8 11.7 0.2 181 0 1 1
0.8 12.3 0.1 181 0 1 1
0.8 12.9 0 182 0 1 1
0.8 13.5 -0.1 181 0 1 1
0.9 8.8 0.5 133 0 1 2
0.9 9.4 0.7 144 0 1 2
1 8.8 0.6 147 0 1 2
1 8.9 0.8 184 0 1 2
1 9.2 0.8 182 0 1 2
1 9.4 0.8 157 0 1 2
1.1 8.8 0.4 195 0 1 2
1.1 8.9 0.8 194 0 1 2
1.1 9.2 0.8 189 0 1 2
1.1 9.3 0.7 187 0 1 2
1.1 9.4 0.7 191 0 1 2
1.3 8.9 0.7 201 0 1 2
1.3 14.8 0 122 0 1 2
1.3 16.1 -0.2 186 0 1 1
1.3 16.7 -0.2 188 0 1 1
1.3 17.4 -0.1 182 0 1 1
1.3 18 -0.1 179 0 1 1
1.3 18.7 -0.1 182 0 1 1
1.3 19.3 -0.1 182 0 1 1
1.3 20 -0.1 105 0 1 1
1.4 3.2 -0.1 194 0 1 1
1.4 3.9 0 198 0 1 1
1.4 4.5 0.1 198 0 1 1
1.4 5.2 0.2 193 0 1 1
1.4 5.9 0.2 200 0 1 1
1.4 6.5 0.3 203 0 1 1
1.4 7.2 0.3 191 0 1 1
1.4 7.9 0.4 192 0 1 1
1.4 8.5 0.4 187 0 1 1
1.4 8.8 0.4 193 0 1 2
1.4 8.8 0.6 205 0 1 2
1.4 9.5 0.7 196 0 1 2
1.4 14.8 0.2 175 0 1 2
1.4 14.9 0.1 175 0 1 2
1.5 8.8 0.5 197 0 1 2
1.5 9.2 0.7 192 0 1 2
1.5 9.5 0.7 188 0 1 2
1.5 14.9 0.2 178 0 1 2
1.6 8.9 0.7 190 0 1 2
1.6 9.2 0.7 190 0 1 2
1.6 14.5 0.2 182 0 1 2
1.6 14.8 0.2 181 0 1 2
1.6 14.9 0.2 165 0 1 2
1.7 8.9 0.3 192 0 1 2
1.7 8.9 0.7 192 0 1 2
1.7 14.4 0.2 190 0 1 2
1.7 14.8 0.2 175 0 1 2
1.7 15 0.2 181 0 1 2
1.8 8.9 0.5 201 0 1 2
1.9 9 0.3 191 0 1 2
1.9 9.6 0.6 184 0 1 2
1.9 15.1 0.2 181 0 1 2
1.9 18 -0.1 178 0 1 1
1.9 18.7 -0.1 180 0 1 1
1.9 19.3 -0.1 180 0 1 1
1.9 20 -0.1 115 0 1 1
2 3.2 -0.1 196 0 1 1
2 3.9 0 194 0 1 1
2 4.5 0 197 0 1 1
2 5.2 0.1 198 0 1 1
2 5.9 0.2 198 0 1 1
2 9 0.3 186 0 1 2
2 9 0.6 131 0 1 2
2 9.1 0.6 173 0 1 2
2 9.6 0.6 190 0 1 2
2 14.4 0.2 197 0 1 2
2.1 6.5 0.2 202 0 1 1
2.1 7.2 0.3 196 0 1 1
2.1 7.8 0.3 190 0 1 1
2.1 8.5 0.3 190 0 1 1
2.1 9.1 0.3 191 0 1 1
2.1 9.4 0.6 197 0 1 2
2.1 14.4 0.1 200 0 1 2
2.1 14.8 0.2 183 0 1 2
2.1 15.1 0.2 183 0 1 2
2.2 14.5 0.2 199 0 1 2
2.2 14.8 0.2 184 0 1 2
2.3 14.5 0.2 186 0 1 2
2.4 14.5 0.2 198 0 1 2
2.4 14.9 0.2 179 0 1 2
2.5 20 -0.1 130 0 1 1
2.6 3.2 -0.1 197 0 1 1
2.6 3.9 -0.1 195 0 1 1
2.6 15.1 0.1 201 0 1 2
2.6 15.2 0.1 185 0 1 2
2.6 18.7 -0.1 178 0 1 1
2.6 19.3 -0.1 177 0 1 1
2.7 4.3 0 156 0 1 2
2.7 4.5 0 90 0 1 2
2.7 5.2 0 193 0 1 1
2.7 5.8 0.1 199 0 1 1
2.7 6.5 0.1 199 0 1 1
2.7 7.2 0.2 198 0 1 1
2.7 7.8 0.2 195 0 1 1
2.7 8.5 0.2 192 0 1 1
2.7 9.1 0.1 189 0 1 1
2.7 9.7 0.1 189 0 1 1
2.7 10.4 0 189 0 1 1
2.7 11 0 189 0 1 1
2.7 11.6 -0.1 183 0 1 1
2.7 12.4 0.1 199 0 1 3
2.7 14.6 0.1 193 0 1 2
2.7 14.7 0.2 192 0 1 2
2.8 4.2 0.1 151 0 1 2
2.8 4.3 0.2 124 0 1 2
2.8 4.6 0 134 0 1 2
2.8 4.6 0.1 155 0 1 2
2.8 4.6 0.2 191 0 1 2
2.8 11.9 0.1 139 0 1 3
2.8 12.2 0.1 98 0 1 3
2.9 4.2 0 178 0 1 2
2.9 4.4 0.2 189 0 1 2
2.9 4.5 0.2 184 0 1 2
2.9 4.6 0.2 194 0 1 2
3 4.1 0.3 178 0 1 2
3 4.5 0.2 169 0 1 2
3 4.6 0.2 178 0 1 2
3 12.8 0.1 167 0 1 3
3.1 4 0.1 183 0 1 2
3.1 4.1 0.1 175 0 1 2
3.1 4.1 0.2 196 0 1 2
3.1 4.6 0.2 188 0 1 2
3.1 12.1 0.2 169 0 1 3
3.1 12.3 0.2 169 0 1 3
3.1 13 0.1 163 0 1 3
3.2 4.1 0.3 198 0 1 2
3.2 4.3 0.3 184 0 1 2
3.2 4.5 0.2 189 0 1 2
3.2 12.5 0.2 173 0 1 3
3.2 13.1 0.2 177 0 1 3
3.2 16.1 -0.2 184 0 1 1
3.2 16.7 -0.2 182 0 1 1
3.2 17.4 -0.1 192 0 1 1
3.2 18 -0.1 183 0 1 1
3.2 18.7 -0.1 177 0 1 1
3.2 19.3 -0.1 180 0 1 1
3.2 20 -0.1 145 0 1 1
3.3 3.2 -0.1 191 0 1 1
3.3 3.8 -0.1 196 0 1 1
3.3 4 0 187 0 1 2
3.3 4 0.2 194 0 1 2
3.3 4 0.3 200 0 1 2
3.3 4.3 0.3 191 0 1 2
3.3 4.5 0.2 190 0 1 2
3.3 5.2 0 193 0 1 1
3.3 5.8 0 197 0 1 1
3.3 6.5 0 199 0 1 1
3.3 7.1 0.1 202 0 1 1
3.3 7.8 0 194 0 1 1
3.3 8.4 0 193 0 1 1
3.3 9.1 0 189 0 1 1
3.3 9.7 0 191 0 1 1
3.3 10.4 -0.1 193 0 1 1
3.3 11 -0.1 189 0 1 1
3.3 11.6 -0.2 184 0 1 1
3.3 13.1 0.3 178 0 1 3
3.3 13.1 0.4 185 0 1 3
3.3 15.4 -0.2 181 0 1 1
3.4 4 0 190 0 1 2
3.4 12.2 0.4 159 0 1 3
3.5 4 0 195 0 1 2
3.5 4 0.1 197 0 1 2
3.5 4 0.2 198 0 1 2
3.5 4 0.3 197 0 1 2
3.5 4.1 0 191 0 1 2
3.5 4.3 0.2 186 0 1 2
3.5 4.5 0.2 194 0 1 2
3.5 11.4 0.4 149 0 1 3
3.5 11.5 0.4 171 0 1 3
3.5 12.1 0.4 164 0 1 3
3.5 12.9 0.3 166 0 1 3
3.5 13 0.4 174 0 1 3
3.5 13.4 0.4 182 0 1 3
3.6 4.4 0.2 187 0 1 2
3.6 12.6 0.4 160 0 1 3
3.7 4.2 0.2 193 0 1 2
3.7 4.4 0.2 191 0 1 2
3.7 12.3 0.5 162 0 1 3
3.7 12.7 0.4 163 0 1 3
3.7 12.8 0.5 170 0 1 3
3.7 13.2 0.5 176 0 1 3
3.7 13.7 0.5 173 0 1 3
3.8 11.3 -0.1 137 0 1 3
3.8 18.7 -0.1 180 0 1 1
3.8 19.3 -0.1 178 0 1 1
3.8 20 -0.1 161 0 1 1
3.9 3.8 -0.1 189 0 1 1
3.9 5.8 -0.1 199 0 1 1
3.9 6.5 -0.1 196 0 1 1
3.9 7.1 -0.1 202 0 1 1
3.9 7.8 -0.1 195 0 1 1
3.9 8.4 -0.1 190 0 1 1
3.9 9.1 -0.1 189 0 1 1
3.9 9.7 -0.2 189 0 1 1
3.9 10.3 -0.2 192 0 1 1
3.9 11 -0.3 191 0 1 1
3.9 12.5 0.6 173 0 1 3
3.9 13 0.6 169 0 1 3
3.9 16.1 -0.2 186 0 1 1
3.9 16.7 -0.2 183 0 1 1
3.9 17.4 -0.1 188 0 1 1
3.9 18 -0.1 184 0 1 1
4.1 12.3 0.7 179 0 1 3
4.1 14 0.7 137 0 1 3
4.2 10.9 0.6 185 0 1 3
4.2 11 0.6 188 0 1 3
4.2 11 0.7 173 0 1 3
4.3 6 -0.1 75 0 1 2
4.3 6 0.1 169 0 1 2
4.3 6.1 -0.1 48 0 1 2
4.3 6.1 0.1 180 0 1 2
4.3 6.2 -0.1 109 0 1 2
4.3 6.3 -0.1 192 0 1 2
4.3 11.8 0.8 171 0 1 3
4.4 5.9 0.1 190 0 1 2
4.4 6 -0.1 123 0 1 2
4.4 6 0.1 177 0 1 2
4.4 6.1 0.1 197 0 1 2
4.4 6.2 0.1 129 0 1 2
4.4 6.3 0.1 174 0 1 2
4.4 6.4 0 197 0 1 2
4.4 10.9 0.7 198 0 1 3
4.4 11 0.8 191 0 1 3
4.4 14.4 0.8 162 0 1 3
4.5 5.9 0 142 0 1 2
4.5 5.9 0.1 209 0 1 2
4.5 6 0.1 207 0 1 2
4.5 6.4 0.1 188 0 1 2
4.5 9 -0.3 190 0 1 1
4.5 9.7 -0.3 191 0 1 1
4.5 10.3 -0.4 197 0 1 1
4.5 10.8 0.1 182 0 1 3
4.5 18 -0.1 188 0 1 1
4.5 18.7 -0.1 180 0 1 1
4.5 19.3 -0.1 179 0 1 1
4.5 20 -0.1 164 0 1 1
4.6 4.5 -0.2 192 0 1 1
4.6 5.1 -0.2 196 0 1 1
4.6 5.8 -0.2 194 0 1 1
4.6 5.8 -0.1 163 0 1 2
4.6 6 0.1 197 0 1 2
4.6 6.1 0.1 196 0 1 2
4.6 6.4 0.1 188 0 1 2
4.6 7.1 -0.2 202 0 1 1
4.6 7.7 -0.2 194 0 1 1
4.6 8.4 -0.2 191 0 1 1
4.6 10.9 0.8 195 0 1 3
4.7 5.8 -0.1 182 0 1 2
4.7 5.9 0.1 202 0 1 2
4.7 6.1 0.1 191 0 1 2
4.7 6.2 0.1 194 0 1 2
4.7 6.3 0.1 191 0 1 2
4.7 10.8 0.3 198 0 1 3
4.8 5.8 -0.1 192 0 1 2
4.8 6.3 0.1 195 0 1 2
4.8 10.6 -0.3 163 0 1 3
4.8 13.6 1 168 0 1 3
4.8 14.6 0.9 117 0 1 3
4.9 5.9 0 202 0 1 2
4.9 6.2 0.1 186 0 1 2
4.9 12.3 1 170 0 1 3
5 6 0 191 0 1 2
5 6.1 -0.2 186 0 1 2
5 6.1 -0.1 204 0 1 2
5 6.1 0.1 191 0 1 2
5 11.3 1 173 0 1 3
5 12.9 1 171 0 1 3
5.1 14 1.1 165 0 1 3
5.1 14.8 1 127 0 1 3
5.1 15 0.9 170 0 1 3
5.1 19.3 -0.1 176 0 1 1
5.1 20 -0.1 171 0 1 1
5.2 5.1 -0.2 195 0 1 1
5.2 5.8 -0.2 191 0 1 1
5.2 7.7 -0.3 191 0 1 1
5.2 8.4 -0.4 190 0 1 1
5.2 9 -0.4 190 0 1 1
5.2 9.7 -0.4 189 0 1 1
5.2 10.3 -0.5 196 0 1 1
5.2 10.8 -0.4 206 0 1 3
5.2 11.3 1.1 194 0 1 3
5.2 14.1 1.1 165 0 1 3
5.3 11.1 0.5 198 0 1 3
5.5 12.5 1.3 172 0 1 3
5.5 14.3 1.2 161 0 1 3
5.6 10.9 -0.5 204 0 1 3
5.7 11.2 0.3 204 0 1 3
5.7 15.7 1 163 0 1 3
5.8 5.8 -0.3 192 0 1 1
5.8 6.4 -0.4 195 0 1 1
5.8 8.4 -0.5 187 0 1 1
5.8 9 -0.5 189 0 1 1
5.8 9.6 -0.6 189 0 1 1
5.8 10.3 -0.6 197 0 1 1
5.8 10.9 -0.6 190 0 1 1
5.8 11.1 -0.1 204 0 1 3
5.8 11.6 1.4 201 0 1 3
5.8 13.5 1.4 183 0 1 3
5.9 13.6 1.4 180 0 1 3
6 13.6 1.5 165 0 1 3
6.1 13.6 1.5 163 0 1 3
6.1 16 1.1 129 0 1 3
6.2 11.3 -0.2 199 0 1 3
6.2 11.7 1.1 204 0 1 3
6.3 12 1.5 199 0 1 3
6.4 6.4 -0.4 187 0 1 1
6.4 7.1 -0.4 192 0 1 1
6.4 7.7 -0.5 194 0 1 1
6.4 9.6 -0.6 191 0 1 1
6.4 10.3 -0.6 195 0 1 1
6.4 10.9 -0.7 197 0 1 1
6.4 12.1 1.6 188 0 1 3
6.4 13.1 1.6 170 0 1 3
6.4 16.3 1.2 142 0 1 3
6.5 13.2 1.7 169 0 1 3
6.6 11.4 -0.4 200 0 1 3
6.6 11.8 0.9 207 0 1 3
6.6 15.5 1.3 165 0 1 3
6.7 11.7 0.5 203 0 1 3
6.7 12.1 1.3 202 0 1 3
6.7 12.4 1.7 208 0 1 3
6.7 16.4 1.3 154 0 1 3
6.8 11.7 0.1 199 0 1 3
6.8 12.5 1.8 206 0 1 3
6.8 14.8 1.5 168 0 1 3
6.9 11.9 0.6 205 0 1 3
6.9 12.2 1.3 203 0 1 3
6.9 12.5 1.7 206 0 1 3
6.9 12.7 1.8 186 0 1 3
6.9 15.6 1.4 160 0 1 3
7 7 -0.5 194 0 1 1
7 7.7 -0.6 195 0 1 1
7 8.3 -0.6 187 0 1 1
7 9 -0.7 186 0 1 1
7 9.6 -0.7 189 0 1 1
7 10.3 -0.7 192 0 1 1
7 10.9 -0.7 194 0 1 1
7 11.6 -0.4 199 0 1 3
7 11.8 0.3 202 0 1 3
7 12.7 1.8 195 0 1 3
7 16.5 1.4 94 0 1 3
7.1 12.6 1.7 204 0 1 3
7.2 11.7 -0.2 199 0 1 3
7.2 12 0.4 202 0 1 3
7.2 12.8 1.7 194 0 1 3
7.3 12.3 1 206 0 1 3
7.4 11.9 -0.3 202 0 1 3
7.4 12.9 1.8 196 0 1 3
7.4 15.3 1.6 169 0 1 3
7.5 12.7 1.4 209 0 1 3
7.5 16.1 1.6 107 0 1 3
7.6 9 -0.7 186 0 1 1
7.6 9.6 -0.7 190 0 1 1
7.6 10.3 -0.7 187 0 1 1
7.6 10.9 -0.7 193 0 1 1
7.6 11.6 -0.7 192 0 1 1
7.6 12.4 0.8 201 0 1 3
7.6 14.5 1.7 171 0 1 3
7.7 7.7 -0.6 196 0 1 1
7.7 8.3 -0.6 187 0 1 1
7.7 12.9 1.5 211 0 1 3
7.8 12.3 0.1 201 0 1 3
7.9 12.3 -0.4 206 0 1 3
7.9 13.5 1.8 203 0 1 3
7.9 13.6 1.9 181 0 1 3
7.9 15.7 1.8 121 0 1 3
8 12.8 1.1 202 0 1 3
8.1 12.8 0.7 202 0 1 3
8.1 15 1.9 160 0 1 3
8.2 13.5 1.5 202 0 1 3
8.3 8.3 -0.6 185 0 1 1
8.3 9 -0.7 182 0 1 1
8.3 9.6 -0.7 190 0 1 1
8.3 10.3 -0.8 186 0 1 1
8.3 10.9 -0.8 197 0 1 1
8.3 11.6 -0.7 191 0 1 1
8.3 12.2 -0.7 188 0 1 1
8.3 12.6 -0.3 200 0 1 3
8.3 12.8 0.2 186 0 1 3
8.3 13.2 0.8 197 0 1 3
8.4 14.2 2 177 0 1 3
8.4 14.3 2 114 0 1 3
8.5 13.2 0.3 197 0 1 3
8.5 14.1 1.9 181 0 1 3
8.6 13.8 1.2 177 0 1 3
8.7 13.5 0.4 189 0 1 3
8.7 14 1.3 197 0 1 3
8.8 13.7 0.6 184 0 1 3
8.9 9 -0.7 182 0 1 1
8.9 9.6 -0.7 187 0 1 1
8.9 10.3 -0.8 188 0 1 1
8.9 10.9 -0.8 193 0 1 1
8.9 11.6 -0.8 197 0 1 1
8.9 12.2 -0.7 190 0 1 1
8.9 12.9 -0.7 184 0 1 1
9.5 9.6 -0.7 184 0 1 1
9.5 10.3 -0.8 189 0 1 1
9.5 10.9 -0.8 190 0 1 1
9.5 11.6 -0.8 195 0 1 1
9.5 12.2 -0.7 189 0 1 1
9.5 12.9 -0.7 184 0 1 1
9.5 13.5 -0.6 186 0 1 1
9.5 14.1 -0.6 192 0 1 1
10.2 10.3 -0.7 189 0 1 1
10.2 10.9 -0.7 185 0 1 1
10.2 11.6 -0.7 195 0 1 1
10.2 12.2 -0.7 189 0 1 1
10.2 12.9 -0.7 186 0 1 1
10.2 13.5 -0.6 189 0 1 1
10.2 14.1 -0.5 190 0 1 1
10.2 14.8 -0.5 189 0 1 1
10.2 15.4 -0.4 195 0 1 1
10.8 10.9 -0.7 187 0 1 1
10.8 11.6 -0.7 195 0 1 1
10.8 12.2 -0.7 194 0 1 1
10.8 12.9 -0.6 185 0 1 1
10.8 13.5 -0.6 186 0 1 1
10.8 14.1 -0.5 187 0 1 1
10.8 14.8 -0.5 192 0 1 1
10.9 15.4 -0.4 193 0 1 1
10.9 16.1 -0.3 187 0 1 1
11.5 11.6 -0.7 193 0 1 1
11.5 12.2 -0.6 192 0 1 1
11.5 12.9 -0.6 186 0 1 1
11.5 13.5 -0.6 183 0 1 1
11.5 14.1 -0.5 188 0 1 1
11.5 14.8 -0.4 190 0 1 1
11.5 15.4 -0.4 194 0 1 1
11.5 16.1 -0.3 188 0 1 1
11.5 16.7 -0.2 184 0 1 1
11.5 17.4 -0.2 186 0 1 1
12.1 12.2 -0.6 193 0 1 1
12.1 12.9 -0.6 187 0 1 1
12.1 13.5 -0.5 188 0 1 1
12.1 14.1 -0.5 188 0 1 1
12.1 14.8 -0.4 187 0 1 1
12.2 15.4 -0.3 196 0 1 1
12.2 16.1 -0.3 191 0 1 1
12.2 16.7 -0.2 183 0 1 1
12.2 17.4 -0.2 184 0 1 1
12.2 18 -0.1 184 0 1 1
12.2 18.7 -0.1 181 0 1 1
12.8 12.9 -0.5 187 0 1 1
12.8 13.5 -0.5 183 0 1 1
12.8 14.1 -0.4 183 0 1 1
12.8 14.8 -0.4 189 0 1 1
12.8 15.4 -0.3 193 0 1 1
12.8 16.1 -0.2 187 0 1 1
12.8 16.7 -0.2 182 0 1 1
12.8 17.4 -0.1 183 0 1 1
12.8 18 -0.1 184 0 1 1
12.8 18.7 -0.1 181 0 1 1
12.9 19.3 -0.1 186 0 1 1
12.9 20 0 115 0 1 1
13.4 13.5 -0.4 187 0 1 1
13.4 14.1 -0.4 185 0 1 1
13.5 14.8 -0.3 187 0 1 1
13.5 15.4 -0.3 191 0 1 1
13.5 16.1 -0.2 186 0 1 1
13.5 16.7 -0.2 181 0 1 1
13.5 17.4 -0.1 184 0 1 1
13.5 18 -0.1 182 0 1 1
13.5 18.7 -0.1 179 0 1 1
13.5 19.3 -0.1 184 0 1 1
13.5 20 0 114 0 1 1
14.1 14.1 -0.3 185 0 1 1
14.1 14.8 -0.3 184 0 1 1
14.1 15.4 -0.2 193 0 1 1
14.1 16.1 -0.2 188 0 1 1
14.1 16.7 -0.1 184 0 1 1
14.1 17.4 -0.1 179 0 1 1
14.1 18 -0.1 179 0 1 1
14.1 18.7 -0.1 181 0 1 1
14.1 19.3 -0.1 185 0 1 1
14.1 20 0 113 0 1 1
14.8 14.8 -0.2 184 0 1 1
14.8 15.4 -0.2 191 0 1 1
14.8 16.1 -0.1 181 0 1 1
14.8 16.7 -0.1 183 0 1 1
14.8 17.4 -0.1 177 0 1 1
14.8 18 -0.1 177 0 1 1
14.8 18.7 -0.1 179 0 1 1
14.8 19.3 -0.1 182 0 1 1
14.8 20 0 115 0 1 1
15.4 15.4 -0.1 186 0 1 1
15.4 16.1 -0.1 178 0 1 1
15.4 16.7 -0.1 180 0 1 1
15.4 17.4 -0.1 173 0 1 1
15.4 18 -0.1 174 0 1 1
15.4 18.7 -0.1 178 0 1 1
15.4 19.3 -0.1 180 0 1 1
15.4 20 0 116 0 1 1
16.1 16.1 -0.1 181 0 1 1
16.1 16.7 -0.1 180 0 1 1
16.1 17.4 -0.1 173 0 1 1
16.1 18 -0.1 171 0 1 1
16.1 18.7 0 175 0 1 1
16.1 19.3 0 178 0 1 1
16.1 20 0 114 0 1 1
16.7 16.7 -0.1 181 0 1 1
16.7 17.4 -0.1 170 0 1 1
16.7 18 -0.1 173 0 1 1
16.7 18.7 0 175 0 1 1
16.7 19.3 0 177 0 1 1
16.7 20 0 113 0 1 1
17.4 17.4 0 173 0 1 1
17.4 18 0 167 0 1 1
17.4 18.7 0 176 0 1 1
17.4 19.3 0 172 0 1 1
17.4 20 0 113 0 1 1
18 18 0 170 0 1 1
18 18.7 0 172 0 1 1
18 19.3 0 171 0 1 1
18 20 0 113 0 1 1
18.7 18.7 0 169 0 1 1
18.7 19.3 0 175 0 1 1
18.7 20 0 109 0 1 1
19.3 19.3 0 170 0 1 1
19.3 20 0 110 0 1 1
20 20 0 105 0 1 1
