-20.1 -6.9 0 80 0 1 1
-20.1 -6.3 0 86 0 1 1
-20 -20 0 82 0 1 1
-20 -5.6 0 84 0 1 1
-20 -5 0 82 0 1 1
-20 -4.3 0 84 0 1 1
-20 -3.7 0 87 0 1 1
-20 -3 0 90 0 1 1
-20 -2.3 0 90 0 1 1
-20 -1.7 0 87 0 1 1
-20 -1 0 80 0 1 1
-20 8.1 0 75 0 1 1
-20 8.8 0 76 0 1 1
-20 9.5 0 78 0 1 1
-19.4 -19.4 0 117 0 1 1
-19.4 -6.3 0 130 0 1 1
-19.4 -5.6 0 126 0 1 1
-19.4 -5 0 124 0 1 1
-19.4 -3.7 0 122 0 1 1
-19.4 -3 0 132 0 1 1
-19.4 -2.3 0 142 0 1 1
-19.4 -1.7 0 122 0 1 1
-19.4 -1 0 114 0 1 1
-19.4 8.1 0 107 0 1 1
-19.4 8.8 0 103 0 1 1
-19.4 9.5 0 105 0 1 1
-18.7 -18.7 0 119 0 1 1
-18.7 -6.3 0 131 0 1 1
-18.7 -5.6 0 127 0 1 1
-18.7 -5 0 125 0 1 1
-18.7 -3.7 0 132 0 1 1
-18.7 -3 0 132 0 1 1
-18.7 -2.3 0 144 0 1 1
-18.7 -1.7 0 118 0 1 1
-18.7 -1 0 104 0 1 1
-18.7 7.5 0 144 0 1 1
-18.7 8.1 0 111 0 1 1
-18.7 8.8 0 109 0 1 1
-18.1 -18.1 0 127 0 1 1
-18.1 -5.6 0 133 0 1 1
-18.1 -5 0 133 0 1 1
-18.1 -3 0 126 0 1 1
-18.1 -2.3 0 128 0 1 1
-18.1 -1.7 0 109 0 1 1
-18.1 -1 0 96 0 1 1
-18.1 7.5 0 117 0 1 1
-18.1 8.1 0 120 0 1 1
-18.1 8.8 0 114 0 1 1
-17.4 -17.4 0 115 0 1 1
-17.4 -5.6 0 133 0 1 1
-17.4 -5 0 125 0 1 1
-17.4 -3 0 127 0 1 1
-17.4 -2.3 0 118 0 1 1
-17.4 -1.7 0 115 0 1 1
-17.4 -1 0 110 0 1 1
-17.4 7.5 0 123 0 1 1
-17.4 8.1 0 121 0 1 1
-17 -0.2 1.2 99 0 1 3
-16.9 -0.4 0 75 0 1 3
-16.9 -0.3 0.6 80 0 1 3
-16.9 -0.1 1.3 96 0 1 3
-16.8 -16.8 0 122 0 1 1
-16.8 -5.6 0 131 0 1 1
-16.8 -5 0 114 0 1 1
-16.8 -4.3 0 116 0 1 1
-16.8 -3 0 125 0 1 1
-16.8 -2.3 0 121 0 1 1
-16.8 -1.7 0 109 0 1 1
-16.8 -1 0 108 0 1 1
-16.8 -0.4 0 76 0 1 1
-16.8 0 1.5 87 0 1 3
-16.8 6.8 0 129 0 1 1
-16.8 7.5 0 125 0 1 1
-16.8 8.1 0 118 0 1 1
-16.7 0.1 1.8 120 0 1 3
-16.4 -5.6 0.2 114 0 1 3
-16.3 -5.5 0 121 0 1 3
-16.2 -5.5 0 128 0 1 3
-16.1 -16.1 0 117 0 1 1
-16.1 -5.5 0.3 122 0 1 3
-16.1 -5 0 119 0 1 1
-16.1 -4.3 0 120 0 1 1
-16.1 -3 0 124 0 1 1
-16.1 -2.3 0 115 0 1 1
-16.1 -1.7 0 113 0 1 1
-16.1 -1 0 96 0 1 1
-16.1 -0.4 0 93 0 1 1
-16.1 6.8 0 138 0 1 1
-16.1 7.5 0 131 0 1 1
-15.9 -5.6 0.6 71 0 1 3
-15.6 -5.5 0.7 81 0 1 3
-15.5 -5.6 0.9 88 0 1 3
-15.5 -5 0 132 0 1 1
-15.5 -4.3 0 128 0 1 1
-15.5 -2.3 0 112 0 1 1
-15.5 -1.7 0 104 0 1 1
-15.5 -1 0 101 0 1 1
-15.5 6.8 0 83 0 1 1
-15.5 7.5 0 109 0 1 1
-15.2 -5.6 1.3 83 0 1 3
-15.2 -3.8 0.1 101 0 1 2
-15.2 -2.9 0.1 107 0 1 2
-15.1 -3.2 0.4 122 0 1 2
-15.1 -3 0.1 107 0 1 2
-15.1 -2.9 0 99 0 1 2
-15.1 3.3 3.1 118 0 1 3
-15 -7.5 3.5 83 0 1 3
-15 -3.3 0.4 123 0 1 2
-15 -3 0.2 120 0 1 2
-14.9 -7.7 3.7 110 0 1 3
-14.9 -3.8 0 94 0 1 2
-14.9 -3.7 0.2 113 0 1 2
-14.9 -3.5 0.4 118 0 1 2
-14.9 -3.4 0.4 141 0 1 2
-14.9 -3.2 0.4 129 0 1 2
-14.9 -3.1 0.4 134 0 1 2
-14.9 -3 0.1 101 0 1 2
-14.9 -3 0.3 90 0 1 2
-14.9 3.8 2.8 108 0 1 3
-14.8 -14.8 0.1 117 0 1 1
-14.8 -7.8 3.8 96 0 1 3
-14.8 -7.2 3.3 101 0 1 3
-14.8 -5.6 1.6 87 0 1 3
-14.8 -5 0.1 125 0 1 1
-14.8 -4.3 0 119 0 1 1
-14.8 -3.1 0.3 107 0 1 2
-14.8 -3.1 0.4 102 0 1 2
-14.8 -3 0.3 98 0 1 2
-14.8 -2.3 0 120 0 1 1
-14.8 -1.7 0 103 0 1 1
-14.8 -1 0 99 0 1 1
-14.8 -0.4 0 83 0 1 1
-14.8 6.2 0 83 0 1 1
-14.8 6.8 0 86 0 1 1
-14.7 -5.8 1.9 91 0 1 3
-14.7 -5.7 1.7 96 0 1 3
-14.7 -3.7 0 113 0 1 2
-14.7 -3.6 0.3 115 0 1 2
-14.7 -3.5 0.4 113 0 1 2
-14.7 -3.3 0.4 144 0 1 2
-14.7 -3.2 0.3 143 0 1 2
-14.7 -3.2 0.4 142 0 1 2
-14.7 -3.1 0.1 152 0 1 2
-14.7 -3.1 0.2 133 0 1 2
-14.7 -3.1 0.3 134 0 1 2
-14.7 -3 0 118 0 1 2
-14.7 -3 0.1 127 0 1 2
-14.7 -3 0.2 118 0 1 2
-14.7 -3 0.3 118 0 1 2
-14.7 4.2 2.5 153 0 1 3
-14.6 -6.8 3.1 117 0 1 3
-14.6 -3.7 0.1 102 0 1 2
-14.6 -3.5 0.2 139 0 1 2
-14.6 -3.5 0.3 118 0 1 2
-14.6 3.1 3.1 105 0 1 3
-14.5 -6.8 3.1 107 0 1 3
-14.5 -6 2.3 81 0 1 3
-14.5 -3.5 0.1 132 0 1 2
-14.5 -3.4 0 118 0 1 2
-14.5 0.2 2.5 79 0 1 3
-14.4 -6.7 3.1 95 0 1 3
-14.4 -0.1 1.2 116 0 1 3
-14.4 0.1 2 87 0 1 3
-14.4 0.4 2.6 97 0 1 3
-14.4 0.9 2.9 126 0 1 3
-14.4 1.2 3 95 0 1 3
-14.4 3.6 2.8 124 0 1 3
-14.3 -6.5 3 89 0 1 3
-14.3 -6.4 2.8 99 0 1 3
-14.3 -6.3 2.7 77 0 1 3
-14.3 -0.4 0.1 81 0 1 3
-14.3 -0.2 0.6 94 0 1 3
-14.3 0.2 2.1 115 0 1 3
-14.3 0.5 2.7 99 0 1 3
-14.3 4.9 2.1 98 0 1 3
-14.2 -14.2 0.1 115 0 1 1
-14.2 -5 0.1 118 0 1 1
-14.2 -4.3 0 123 0 1 1
-14.2 -0.3 0.3 97 0 1 3
-14.2 -0.2 0.9 116 0 1 3
-14.2 0 1.4 125 0 1 3
-14.2 1.3 2.9 120 0 1 3
-14.2 2.9 3.1 100 0 1 3
-14.1 -7.5 3.6 125 0 1 3
-14.1 -3.7 0 123 0 1 1
-14.1 -3 0 116 0 1 1
-14.1 -2.3 0 123 0 1 1
-14.1 -1.7 0 104 0 1 1
-14.1 -1 0 111 0 1 1
-14.1 -0.4 0 85 0 1 1
-14.1 -0.1 0.3 89 0 1 3
-14.1 0 0.9 98 0 1 3
-14.1 0.7 2.2 143 0 1 3
-14.1 1 2.8 131 0 1 3
-14.1 1.5 2.9 115 0 1 3
-14.1 1.9 3 115 0 1 3
-14.1 6.2 0 76 0 1 1
-14.1 6.8 0 92 0 1 1
-14 -7.7 3.7 78 0 1 3
-14 -6.4 2.9 127 0 1 3
-14 -6.3 2.8 111 0 1 3
-14 1.4 2.9 115 0 1 3
-14 2.8 3.1 112 0 1 3
-14 3.8 2.6 122 0 1 3
-14 4.5 2.3 128 0 1 3
-13.9 0.1 0.3 104 0 1 3
-13.9 1.6 2.9 141 0 1 3
-13.9 2.6 3.1 114 0 1 3
-13.8 1.5 2.8 131 0 1 3
-13.8 1.7 2.9 141 0 1 3
-13.8 2.2 3 124 0 1 3
-13.8 3.9 2.5 153 0 1 3
-13.8 4.1 2.4 156 0 1 3
-13.7 -6.3 2.9 117 0 1 3
-13.7 0.4 0.3 106 0 1 3
-13.7 1.6 2.6 134 0 1 3
-13.7 1.7 2.8 144 0 1 3
-13.7 3.1 2.9 120 0 1 3
-13.6 1.2 1.1 88 0 1 3
-13.6 1.8 2.6 153 0 1 3
-13.6 2.5 2.8 123 0 1 3
-13.6 3 2.9 126 0 1 3
-13.6 4.9 1.9 95 0 1 3
-13.6 5 1.9 81 0 1 3
-13.5 -13.5 0.2 112 0 1 1
-13.5 -7.3 3.5 116 0 1 3
-13.5 -5 0.1 121 0 1 1
-13.5 -4.3 0 118 0 1 1
-13.5 -3.7 0 116 0 1 1
-13.5 -3 0 111 0 1 1
-13.5 -2.3 0 111 0 1 1
-13.5 -1.7 0 111 0 1 1
-13.5 -1 0 115 0 1 1
-13.5 -0.4 0 101 0 1 1
-13.5 0.3 0 109 0 1 1
-13.5 1.7 2.5 133 0 1 3
-13.5 4.8 2 102 0 1 3
-13.5 5.2 1.1 89 0 1 3
-13.5 5.5 0 152 0 1 1
-13.5 6.2 0 84 0 1 1
-13.4 -5.4 1.6 94 0 1 3
-13.4 -5.2 0.8 82 0 1 3
-13.4 1.2 0.9 102 0 1 3
-13.4 2.6 2.7 126 0 1 3
-13.4 5 1.4 99 0 1 3
-13.4 5.1 1.4 99 0 1 3
-13.4 5.4 0.4 132 0 1 3
-13.4 5.5 0 111 0 1 3
-13.3 -7.1 3.3 118 0 1 3
-13.3 -5.7 2.1 91 0 1 3
-13.3 -5.6 1.8 105 0 1 3
-13.3 -5.5 1.7 114 0 1 3
-13.3 1.5 1.9 103 0 1 3
-13.3 1.8 2.4 132 0 1 3
-13.3 3.3 2.7 122 0 1 3
-13.3 5.3 0.6 125 0 1 3
-13.2 -8.2 3.7 79 0 1 3
-13.2 -7.9 3.6 123 0 1 3
-13.2 -7.6 3.6 120 0 1 3
-13.2 1.7 1.7 119 0 1 3
-13.2 4.4 2.2 105 0 1 3
-13.2 5.1 0.9 138 0 1 3
-13.1 -6.7 3.1 117 0 1 3
-13.1 -6 2.5 115 0 1 3
-13.1 1.2 0.2 109 0 1 3
-13.1 2.6 2.4 135 0 1 3
-13.1 3.3 2.6 131 0 1 3
-13.1 3.4 2.6 116 0 1 3
-13.1 4.3 2.1 122 0 1 3
-13 -6.6 3 119 0 1 3
-13 -6.3 2.9 113 0 1 3
-13 -6.1 2.7 107 0 1 3
-13 1.5 1.1 110 0 1 3
-13 2.8 2.3 136 0 1 3
-13 4 2.3 130 0 1 3
-13 4.5 1.5 96 0 1 3
-12.9 1.3 0.2 119 0 1 3
-12.9 1.4 0.4 111 0 1 3
-12.9 2.6 1.6 143 0 1 3
-12.9 3.4 2.5 144 0 1 3
-12.9 3.5 2.5 141 0 1 3
-12.9 3.6 2.5 112 0 1 3
-12.9 3.7 2.4 148 0 1 3
-12.9 3.8 2.4 132 0 1 3
-12.8 -12.9 0.2 122 0 1 1
-12.8 -8.1 3.6 102 0 1 3
-12.8 -5 0.1 117 0 1 1
-12.8 -4.3 0 125 0 1 1
-12.8 -3.7 0 111 0 1 1
-12.8 -3 0 116 0 1 1
-12.8 -2.3 0 102 0 1 1
-12.8 -1.7 0 113 0 1 1
-12.8 -1 0 116 0 1 1
-12.8 -0.4 0 100 0 1 1
-12.8 0.3 0 102 0 1 1
-12.8 0.9 0 120 0 1 1
-12.8 1.9 0.7 121 0 1 3
-12.8 3.6 2.3 166 0 1 3
-12.8 3.9 2.2 142 0 1 3
-12.8 4.7 0.5 138 0 1 3
-12.8 4.9 0 113 0 1 1
-12.8 5.5 0 95 0 1 1
-12.8 6.2 0 89 0 1 1
-12.7 -8.4 3.6 100 0 1 3
-12.7 -6.1 2.7 80 0 1 3
-12.7 -6.1 2.8 114 0 1 3
-12.7 1.8 0 114 0 1 3
-12.7 3.8 2.1 148 0 1 3
-12.7 4.5 0.7 125 0 1 3
-12.7 4.7 0.2 154 0 1 3
-12.6 -7.4 3.5 127 0 1 3
-12.6 -7.3 3.5 128 0 1 3
-12.6 2.4 0.6 136 0 1 3
-12.6 2.7 0.8 140 0 1 3
-12.5 2.3 0.2 110 0 1 3
-12.4 2.6 0 113 0 1 3
-12.4 2.8 0.2 114 0 1 3
-12.4 3.9 1.3 138 0 1 3
-12.3 -8.7 3.6 84 0 1 3
-12.2 -12.2 0.3 119 0 1 1
-12.2 -4.3 0.1 113 0 1 1
-12.2 -3.7 0 119 0 1 1
-12.2 -3 0 109 0 1 1
-12.2 -2.4 0 115 0 1 1
-12.2 -1.7 0 113 0 1 1
-12.2 -1 0 103 0 1 1
-12.2 -0.4 0 98 0 1 1
-12.2 0.3 0 107 0 1 1
-12.2 0.9 0 125 0 1 1
-12.2 1.6 0 124 0 1 1
-12.2 2.2 0 123 0 1 1
-12.2 2.9 0 128 0 1 1
-12.2 3.1 0 134 0 1 3
-12.2 3.4 0.2 127 0 1 3
-12.2 3.7 0.4 117 0 1 3
-12.2 3.9 0.6 93 0 1 3
-12.2 4.2 0 112 0 1 1
-12.2 4.9 0 73 0 1 1
-12.2 5.5 0 55 0 1 1
-12.1 -8 3.5 117 0 1 3
-12.1 -5 0.8 61 0 1 3
-12.1 -4.9 0.1 116 0 1 3
-12.1 3.6 0.1 113 0 1 3
-12.1 3.9 0 106 0 1 3
-12.1 3.9 0.3 95 0 1 3
-12 -7.2 3.4 114 0 1 3
-12 -5.3 1.7 110 0 1 3
-12 -5.2 1.5 84 0 1 3
-12 -5.1 1.4 107 0 1 3
-12 -4.9 0.3 108 0 1 3
-11.9 -8.8 3.6 94 0 1 3
-11.9 -8.5 3.5 110 0 1 3
-11.9 -7.1 3.4 113 0 1 3
-11.9 -5.6 2.3 142 0 1 3
-11.9 -5.5 2 129 0 1 3
-11.9 -5.4 1.8 122 0 1 3
-11.9 -5.2 1.5 129 0 1 3
-11.9 -5.1 1.1 88 0 1 3
-11.9 -5.1 1.2 118 0 1 3
-11.9 -4.9 0.4 71 0 1 3
-11.8 -7.8 3.4 124 0 1 3
-11.8 -6.8 3.2 118 0 1 3
-11.8 -5.9 2.6 138 0 1 3
-11.8 -5.8 2.3 132 0 1 3
-11.8 -5.8 2.4 109 0 1 3
-11.8 -5.7 2.1 164 0 1 3
-11.8 -5 0.6 92 0 1 3
-11.8 -5 0.7 107 0 1 3
-11.8 -5 1 108 0 1 3
-11.7 -11.3 0.5 110 0 1 3
-11.7 -10.7 2.6 105 0 1 3
-11.7 -7.7 3.4 126 0 1 3
-11.7 -6.6 3.1 118 0 1 3
-11.7 -6.3 2.9 123 0 1 3
-11.7 -6 2.4 95 0 1 3
-11.7 -6 2.8 136 0 1 3
-11.7 -5.9 2.4 110 0 1 3
-11.7 -5.9 2.5 130 0 1 3
-11.7 -5.9 2.7 129 0 1 3
-11.7 -5.7 1.6 162 0 1 3
-11.7 -5.5 1.3 167 0 1 3
-11.6 -10.9 1.7 133 0 1 3
-11.6 -10.6 2.7 99 0 1 3
-11.6 -10.6 2.9 76 0 1 3
-11.6 -10.5 3 89 0 1 3
-11.6 -8.4 3.4 113 0 1 3
-11.6 -6.5 3 131 0 1 3
-11.6 -6.2 2.7 146 0 1 3
-11.6 -6.2 2.9 134 0 1 3
-11.6 -6.1 2.8 136 0 1 3
-11.6 -6 2.4 136 0 1 3
-11.6 -5.5 1 141 0 1 3
-11.5 -11.6 0.3 122 0 1 1
-11.5 -10.9 1.8 119 0 1 3
-11.5 -9 3.5 87 0 1 3
-11.5 -8.7 3.5 118 0 1 3
-11.5 -6.4 3 129 0 1 3
-11.5 -6.3 2.3 101 0 1 3
-11.5 -6.3 2.4 111 0 1 3
-11.5 -6 1.8 131 0 1 3
-11.5 -5.6 0.1 121 0 1 1
-11.5 -5.6 0.5 140 0 1 3
-11.5 -5.6 0.7 151 0 1 3
-11.5 -5 0.1 102 0 1 1
-11.5 -4.3 0.1 108 0 1 1
-11.5 -3.7 0.1 107 0 1 1
-11.5 -3 0 102 0 1 1
-11.5 -1.7 0 98 0 1 1
-11.5 -1 0 118 0 1 1
-11.5 -0.4 0 94 0 1 1
-11.5 0.3 0 105 0 1 1
-11.5 0.9 0 125 0 1 1
-11.5 1.6 0 116 0 1 1
-11.5 2.2 0 119 0 1 1
-11.5 2.9 0 118 0 1 1
-11.5 3.6 0 121 0 1 1
-11.5 4.2 0 73 0 1 1
-11.5 4.9 0 52 0 1 1
-11.5 5.5 0 54 0 1 1
-11.4 -11.1 0.9 117 0 1 3
-11.4 -10.8 0.3 97 0 1 3
-11.4 -10.3 2.5 126 0 1 3
-11.4 -10.2 2.7 128 0 1 3
-11.4 -10.1 3.2 101 0 1 3
-11.4 -9.3 3.5 87 0 1 3
-11.4 -9 3.4 135 0 1 3
-11.4 -8.1 3.3 112 0 1 3
-11.4 -6.5 2.6 133 0 1 3
-11.4 -6.3 1.8 141 0 1 3
-11.4 -6 1.3 161 0 1 3
-11.3 -10.5 1.6 120 0 1 3
-11.3 -9.8 3.1 129 0 1 3
-11.3 -9.5 3.5 95 0 1 3
-11.3 -7.9 3.1 131 0 1 3
-11.3 -6.6 2.3 119 0 1 3
-11.3 -6.1 0.9 147 0 1 3
-11.2 -9.7 3.5 93 0 1 3
-11.2 -9.6 3.5 123 0 1 3
-11.2 -8.8 3.3 124 0 1 3
-11.2 -7.8 3.1 128 0 1 3
-11.2 -6.2 0.6 111 0 1 3
-11.1 -10.6 0.8 108 0 1 3
-11.1 -9.9 2.3 128 0 1 3
-11.1 -9.4 3.3 122 0 1 3
-11.1 -6.8 1.5 134 0 1 3
-11 -9.6 2.7 132 0 1 3
-11 -7.5 2.8 151 0 1 3
-11 -7.1 2 121 0 1 3
-11 -6.8 0.3 80 0 1 3
-10.9 -10.9 0.3 118 0 1 1
-10.9 -10.3 0.3 122 0 1 1
-10.9 -10 1.5 123 0 1 3
-10.9 -9.2 3.2 134 0 1 3
-10.9 -7.6 2.5 153 0 1 3
-10.9 -7 0.2 123 0 1 1
-10.9 -6.9 1.1 126 0 1 3
-10.9 -6.8 0.4 88 0 1 3
-10.9 -6.3 0.2 109 0 1 1
-10.9 -5.6 0.1 117 0 1 1
-10.9 -5 0.1 119 0 1 1
-10.9 -4.3 0.1 105 0 1 1
-10.9 0.3 0 124 0 1 1
-10.9 0.9 0 126 0 1 1
-10.9 1.6 0 121 0 1 1
-10.9 2.2 0 121 0 1 1
-10.9 2.9 0 122 0 1 1
-10.9 3.6 0 96 0 1 1
-10.9 4.2 0 54 0 1 1
-10.9 4.9 0 48 0 1 1
-10.9 5.5 0 49 0 1 1
-10.8 -9.6 1.9 113 0 1 3
-10.8 -3.7 0.1 97 0 1 1
-10.8 -3 0.1 104 0 1 1
-10.8 -1.7 0.1 107 0 1 1
-10.8 -1 0.1 116 0 1 1
-10.8 -0.4 0 104 0 1 1
-10.7 -10 0.7 81 0 1 3
-10.7 -8.9 2.9 124 0 1 3
-10.7 -7.7 1.6 137 0 1 3
-10.6 -9.3 1.7 116 0 1 3
-10.6 -7.4 0.5 129 0 1 3
-10.5 -8.1 2.2 150 0 1 3
-10.4 -9.4 0.6 97 0 1 3
-10.4 -9.4 0.7 98 0 1 3
-10.4 -8.6 2.7 143 0 1 3
-10.3 -8.2 1 145 0 1 3
-10.3 -8.2 1.2 145 0 1 3
-10.2 -10.2 0.2 120 0 1 1
-10.2 -9.6 0.2 119 0 1 1
-10.2 -8.7 1.7 135 0 1 3
-10.2 -8.3 0.2 119 0 1 1
-10.2 -7.6 0.2 121 0 1 1
-10.2 -7 0.2 122 0 1 1
-10.2 -6.3 0.2 118 0 1 1
-10.2 -5.7 0.2 112 0 1 1
-10.2 -5 0.2 89 0 1 1
-10.2 -4.3 0.1 98 0 1 1
-10.2 -3.7 0.1 94 0 1 1
-10.2 -3 0.1 103 0 1 1
-10.2 -1.1 0.1 102 0 1 1
-10.2 -0.4 0.1 113 0 1 1
-10.2 0.3 0.1 120 0 1 1
-10.2 0.9 0 116 0 1 1
-10.2 1.6 0 112 0 1 1
-10.2 2.2 0 121 0 1 1
-10.2 2.9 0 122 0 1 1
-10.2 3.6 0 102 0 1 1
-10.2 4.2 0 54 0 1 1
-10.2 4.9 0 47 0 1 1
-10.1 -8.8 0.2 102 0 1 3
-10.1 -8.7 0.2 89 0 1 3
-10 -8.9 0.5 96 0 1 3
-10 -8.8 0.4 96 0 1 3
-10 -8.8 0.6 99 0 1 3
-10 -8.8 0.7 119 0 1 3
-10 -8.7 0.4 118 0 1 3
-10 -8.7 0.6 113 0 1 3
-10 4.9 0.8 98 0 1 3
-10 4.9 1 63 0 1 3
-9.8 5.1 2.2 67 0 1 3
-9.6 -9.6 0.2 119 0 1 1
-9.6 -8.9 0.2 111 0 1 1
-9.6 -8.3 0.2 128 0 1 1
-9.6 -7.6 0.2 125 0 1 1
-9.6 3.6 0 111 0 1 1
-9.6 4.2 0 89 0 1 1
-9.6 4.9 0 47 0 1 1
-9.5 -7 0.2 128 0 1 1
-9.5 -6.3 0.2 107 0 1 1
-9.5 -5.7 0.2 110 0 1 1
-9.5 -5 0.2 100 0 1 1
-9.5 -4.3 0.2 109 0 1 1
-9.5 -3.7 0.2 110 0 1 1
-9.5 -3 0.2 111 0 1 1
-9.5 -1.1 0.2 109 0 1 1
-9.5 -0.4 0.1 116 0 1 1
-9.5 0.3 0.1 113 0 1 1
-9.5 0.9 0.1 118 0 1 1
-9.5 1.6 0.1 124 0 1 1
-9.5 2.2 0 119 0 1 1
-9.5 2.9 0 115 0 1 1
-9.3 4.7 1.6 58 0 1 3
-8.9 -8.9 0.2 117 0 1 1
-8.9 -8.3 0.2 118 0 1 1
-8.9 -7.6 0.2 119 0 1 1
-8.9 -7 0.2 118 0 1 1
-8.9 -6.3 0.2 112 0 1 1
-8.9 -5.7 0.2 113 0 1 1
-8.9 -5 0.2 109 0 1 1
-8.9 0.2 0.2 123 0 1 1
-8.9 0.9 0.1 126 0 1 1
-8.9 1.6 0.1 120 0 1 1
-8.9 2.2 0.1 122 0 1 1
-8.9 2.9 0 115 0 1 1
-8.9 3.6 0 114 0 1 1
-8.9 4.2 0 115 0 1 1
-8.9 4.9 0 89 0 1 1
-8.9 5.5 0 48 0 1 1
-8.8 -4.3 0.2 110 0 1 1
-8.8 -3.7 0.2 110 0 1 1
-8.8 -3 0.2 112 0 1 1
-8.8 -1.1 0.2 117 0 1 1
-8.8 -0.4 0.2 120 0 1 1
-8.6 4.4 2 42 0 1 3
-8.5 4.4 2.4 77 0 1 3
-8.5 4.7 2.5 116 0 1 3
-8.5 4.9 2.6 114 0 1 3
-8.5 5 2.6 92 0 1 3
-8.4 4.6 2.5 91 0 1 3
-8.3 4.2 1.4 52 0 1 3
-8.3 4.3 2 45 0 1 3
-8.3 4.4 2.4 121 0 1 3
-8.3 5.3 2.7 132 0 1 3
-8.2 -8.3 0.1 114 0 1 1
-8.2 -7.6 0.2 128 0 1 1
-8.2 -7 0.2 114 0 1 1
-8.2 -6.3 0.2 113 0 1 1
-8.2 -5.7 0.2 111 0 1 1
-8.2 -5 0.3 112 0 1 1
-8.2 -4.4 0.3 109 0 1 1
-8.2 -3.7 0.3 107 0 1 1
-8.2 -3 0.3 99 0 1 1
-8.2 -2.4 0.3 103 0 1 1
-8.2 -1.1 0.3 121 0 1 1
-8.2 -0.4 0.3 120 0 1 1
-8.2 0.2 0.2 132 0 1 1
-8.2 0.9 0.2 124 0 1 1
-8.2 1.6 0.1 120 0 1 1
-8.2 2.2 0.1 120 0 1 1
-8.2 2.9 0 112 0 1 1
-8.2 3.5 0 113 0 1 1
-8.2 4.2 0 114 0 1 1
-8.2 4.2 2.1 45 0 1 3
-8.2 4.3 2.2 122 0 1 3
-8.2 4.3 2.3 111 0 1 3
-8.2 4.9 0 104 0 1 1
-8.2 5.5 0 50 0 1 1
-8.2 6.2 0 48 0 1 1
-8.2 7.6 2.5 84 0 1 3
-8.2 7.6 2.6 132 0 1 3
-8.1 4.2 2.1 106 0 1 3
-8.1 4.2 2.2 109 0 1 3
-8 4.1 1.8 115 0 1 3
-8 4.2 2 96 0 1 3
-8 5.6 2.7 107 0 1 3
-7.9 -1.7 0.7 107 0 1 2
-7.9 4 1.5 71 0 1 3
-7.9 4 1.7 72 0 1 3
-7.8 -1.7 0.7 105 0 1 2
-7.8 3.8 0.9 99 0 1 3
-7.8 3.8 1 100 0 1 3
-7.8 3.8 1.1 111 0 1 3
-7.8 3.8 1.2 76 0 1 3
-7.8 3.9 1.3 91 0 1 3
-7.8 3.9 1.4 122 0 1 3
-7.8 4 1.5 107 0 1 3
-7.8 4 1.6 130 0 1 3
-7.8 4.7 2.3 132 0 1 3
-7.8 5 2.4 131 0 1 3
-7.8 5.4 2.6 136 0 1 3
-7.8 5.5 2.6 128 0 1 3
-7.8 6.9 2.7 146 0 1 3
-7.8 7.5 2.3 142 0 1 3
-7.7 -1.8 0.7 109 0 1 2
-7.7 -1.7 0.7 116 0 1 2
-7.7 3.8 0.8 109 0 1 3
-7.7 3.8 0.9 98 0 1 3
-7.7 3.9 1.1 96 0 1 3
-7.7 4.7 2.2 95 0 1 3
-7.7 4.9 2.3 117 0 1 3
-7.7 6 2.8 129 0 1 3
-7.7 6.9 2.6 156 0 1 3
-7.7 7 2.6 154 0 1 3
-7.6 -7.6 0.2 119 0 1 1
-7.6 -7 0.2 120 0 1 1
-7.6 -1.9 0.7 118 0 1 2
-7.6 -1.8 0.7 116 0 1 2
-7.6 -1.2 0.7 118 0 1 2
-7.6 -1.1 0.3 114 0 1 2
-7.6 -1.1 0.4 99 0 1 2
-7.6 2.2 0.1 119 0 1 1
-7.6 2.9 0.1 114 0 1 1
-7.6 3.5 0 107 0 1 1
-7.6 3.8 0.7 109 0 1 3
-7.6 4.2 0 96 0 1 1
-7.6 4.8 2.2 132 0 1 3
-7.6 4.9 0 101 0 1 1
-7.6 5.5 0 104 0 1 1
-7.6 5.9 2.7 142 0 1 3
-7.6 6.2 0 114 0 1 1
-7.6 6.8 0 113 0 1 1
-7.6 7.1 2.4 157 0 1 3
-7.5 -6.3 0.2 120 0 1 1
-7.5 -5.7 0.3 115 0 1 1
-7.5 -5 0.3 111 0 1 1
-7.5 -4.4 0.3 93 0 1 1
-7.5 -3.7 0.3 89 0 1 1
-7.5 -3.1 0.4 113 0 1 1
-7.5 -2.4 0.4 115 0 1 1
-7.5 -2 0.6 113 0 1 2
-7.5 -2 0.7 105 0 1 2
-7.5 -1.9 0.7 119 0 1 2
-7.5 -1.7 0.7 122 0 1 2
-7.5 -1.6 0.7 131 0 1 2
-7.5 -1.2 0.6 118 0 1 2
-7.5 -1.2 0.7 124 0 1 2
-7.5 -1.1 0.3 117 0 1 1
-7.5 -0.4 0.3 130 0 1 1
-7.5 0.2 0.3 135 0 1 1
-7.5 0.9 0.2 123 0 1 1
-7.5 1.6 0.2 125 0 1 1
-7.5 3.9 0.5 51 0 1 3
-7.5 4 0.4 47 0 1 3
-7.5 4.8 2.1 146 0 1 3
-7.4 -2.1 0.4 114 0 1 2
-7.4 -2.1 0.5 116 0 1 2
-7.4 -2 0.5 122 0 1 2
-7.4 -2 0.6 116 0 1 2
-7.4 -1.2 0.5 115 0 1 2
-7.4 -1.2 0.6 130 0 1 2
-7.4 3.9 0.4 124 0 1 3
-7.4 4.7 1.8 115 0 1 3
-7.4 5.1 2.3 146 0 1 3
-7.4 6.3 2.8 122 0 1 3
-7.3 -1.8 0.6 144 0 1 2
-7.3 -1.7 0.7 139 0 1 2
-7.3 -1.6 0.7 144 0 1 2
-7.3 -1.5 0.7 134 0 1 2
-7.3 -1.2 0.5 113 0 1 2
-7.3 -1.2 0.6 109 0 1 2
-7.3 4.6 1.7 130 0 1 3
-7.3 6.3 2.7 156 0 1 3
-7.2 -1.7 0.5 146 0 1 2
-7.2 -1.7 0.6 146 0 1 2
-7.2 -1.6 0.6 143 0 1 2
-7.2 -1.6 0.7 148 0 1 2
-7.2 -1.4 0.6 161 0 1 2
-7.2 4.1 0.4 99 0 1 3
-7.2 4.6 1.5 123 0 1 3
-7.2 4.6 1.6 147 0 1 3
-7.2 5.3 2.2 141 0 1 3
-7.2 5.3 2.3 145 0 1 3
-7.2 6.2 2.7 151 0 1 3
-7.2 6.3 2.6 165 0 1 3
-7.2 7 2.2 156 0 1 3
-7.1 -1.7 0.5 136 0 1 2
-7.1 -1.6 0.5 149 0 1 2
-7.1 -1.3 0.4 122 0 1 2
-7.1 -1.3 0.5 129 0 1 2
-7.1 -1.2 0.5 115 0 1 2
-7.1 4.5 1.1 127 0 1 3
-7.1 5.4 2.2 130 0 1 3
-7.1 5.4 2.3 149 0 1 3
-7.1 5.5 2.3 142 0 1 3
-7.1 5.7 2.4 142 0 1 3
-7.1 6 2.5 146 0 1 3
-7.1 6.3 2.6 156 0 1 3
-7.1 6.4 2.5 157 0 1 3
-7.1 7 2.2 155 0 1 3
-7 -1.6 0.4 132 0 1 2
-7 -1.4 0.4 127 0 1 2
-7 5.6 2.2 155 0 1 3
-7 5.7 2.2 146 0 1 3
-7 6.1 2.4 161 0 1 3
-7 6.4 2.5 158 0 1 3
-6.9 -7 0.2 97 0 1 1
-6.9 -6.3 0.2 108 0 1 1
-6.9 -5.7 0.3 89 0 1 1
-6.9 -5 0.3 99 0 1 1
-6.9 -4.4 0.3 92 0 1 1
-6.9 -0.4 0.3 138 0 1 1
-6.9 0.2 0.3 128 0 1 1
-6.9 0.9 0.3 128 0 1 1
-6.9 1.6 0.2 122 0 1 1
-6.9 2.2 0.1 122 0 1 1
-6.9 2.9 0.1 119 0 1 1
-6.9 3.5 0 115 0 1 1
-6.9 4.2 0 105 0 1 1
-6.9 4.9 0 113 0 1 1
-6.9 5.3 1.9 136 0 1 3
-6.9 5.5 0 113 0 1 1
-6.9 5.5 2.1 149 0 1 3
-6.9 5.7 2 130 0 1 3
-6.9 5.7 2.1 150 0 1 3
-6.9 6.1 2.2 160 0 1 3
-6.9 6.2 0 113 0 1 1
-6.9 6.5 2.3 164 0 1 3
-6.9 6.8 0 123 0 1 1
-6.8 -3.7 0.4 102 0 1 1
-6.8 -3.1 0.4 112 0 1 1
-6.8 -2.4 0.4 112 0 1 1
-6.8 -1.8 0.4 122 0 1 1
-6.8 -1.1 0.4 126 0 1 1
-6.8 5.4 1.8 155 0 1 3
-6.8 5.7 2 142 0 1 3
-6.8 6.2 2 165 0 1 3
-6.8 6.7 2.1 164 0 1 3
-6.7 5.2 1.6 149 0 1 3
-6.7 5.2 1.7 138 0 1 3
-6.7 5.6 1.8 130 0 1 3
-6.7 6.3 1.9 154 0 1 3
-6.6 5.2 1.5 136 0 1 3
-6.6 5.4 1.5 151 0 1 3
-6.6 5.4 1.6 143 0 1 3
-6.5 5.6 1.6 151 0 1 3
-6.5 6.3 1.6 148 0 1 3
-6.4 5.3 1.3 150 0 1 3
-6.4 5.5 1.3 157 0 1 3
-6.3 3.5 0.1 125 0 1 1
-6.3 4.2 0 111 0 1 1
-6.3 4.9 0 108 0 1 1
-6.3 5.4 1.1 138 0 1 3
-6.3 5.5 0 118 0 1 1
-6.3 6.1 1.3 135 0 1 3
-6.3 6.2 0 122 0 1 1
-6.2 -6.3 0.2 105 0 1 1
-6.2 -5.7 0.3 106 0 1 1
-6.2 -5 0.3 99 0 1 1
-6.2 -4.4 0.4 98 0 1 1
-6.2 -3.7 0.4 120 0 1 1
-6.2 -3.1 0.4 116 0 1 1
-6.2 -2.4 0.4 135 0 1 1
-6.2 -1.8 0.4 138 0 1 1
-6.2 -1.1 0.4 135 0 1 1
-6.2 -0.4 0.4 128 0 1 1
-6.2 0.2 0.3 125 0 1 1
-6.2 0.9 0.3 122 0 1 1
-6.2 1.6 0.2 122 0 1 1
-6.2 2.2 0.2 124 0 1 1
-6.2 2.9 0.1 108 0 1 1
-6.2 5.5 1.1 137 0 1 3
-6.1 6 1.1 146 0 1 3
-6 5.5 0.9 124 0 1 3
-6 5.7 0.9 155 0 1 3
-5.9 5.6 0.7 135 0 1 3
-5.8 5.6 0.4 92 0 1 3
-5.8 5.7 0.7 142 0 1 3
-5.7 5.7 0.4 83 0 1 3
-5.6 1.6 0.2 123 0 1 1
-5.6 2.2 0.2 127 0 1 1
-5.6 2.9 0.1 122 0 1 1
-5.6 3.5 0.1 134 0 1 1
-5.6 4.2 0 123 0 1 1
-5.6 4.9 0 113 0 1 1
-5.6 5.5 0 125 0 1 1
-5.5 -5 0.4 110 0 1 1
-5.5 -4.4 0.4 111 0 1 1
-5.5 -3.7 0.4 113 0 1 1
-5.5 -3.1 0.5 117 0 1 1
-5.5 -2.4 0.5 135 0 1 1
-5.5 -1.8 0.5 135 0 1 1
-5.5 -1.1 0.4 126 0 1 1
-5.5 -0.4 0.4 132 0 1 1
-5.5 0.2 0.4 125 0 1 1
-5.5 0.9 0.3 121 0 1 1
-5 4.2 0 128 0 1 1
-5 4.9 0 118 0 1 1
-4.9 -4.4 0.4 113 0 1 1
-4.9 -3.7 0.4 117 0 1 1
-4.9 -3.1 0.5 104 0 1 1
-4.9 -2.4 0.5 126 0 1 1
-4.9 -1.8 0.5 122 0 1 1
-4.9 -1.1 0.4 127 0 1 1
-4.9 -0.4 0.4 127 0 1 1
-4.9 0.2 0.4 126 0 1 1
-4.9 0.9 0.3 119 0 1 1
-4.9 1.5 0.2 123 0 1 1
-4.9 2.2 0.2 126 0 1 1
-4.9 2.9 0.1 125 0 1 1
-4.9 3.5 0.1 122 0 1 1
-4.3 1.6 0.2 118 0 1 1
-4.3 2.2 0.2 124 0 1 1
-4.3 2.9 0.1 120 0 1 1
-4.3 3.5 0.1 126 0 1 1
-4.3 4.2 0 120 0 1 1
-4.2 -3.7 0.4 120 0 1 1
-4.2 -3.1 0.5 108 0 1 1
-4.2 -2.4 0.5 112 0 1 1
-4.2 -1.8 0.5 114 0 1 1
-4.2 -1.1 0.4 127 0 1 1
-4.2 -0.4 0.4 126 0 1 1
-4.2 0.2 0.4 122 0 1 1
-4.2 0.9 0.3 116 0 1 1
-3.6 -3.1 0.4 113 0 1 1
-3.6 -2.4 0.4 121 0 1 1
-3.6 -1.8 0.4 129 0 1 1
-3.6 -1.1 0.4 122 0 1 1
-3.6 -0.4 0.4 129 0 1 1
-3.6 0.2 0.3 126 0 1 1
-3.6 0.9 0.4 116 0 1 2
-3.6 0.9 0.5 122 0 1 2
-3.6 1 0.4 112 0 1 2
-3.6 1.6 0.2 119 0 1 1
-3.6 2.2 0.2 118 0 1 1
-3.6 2.9 0.1 117 0 1 1
-3.6 3.5 0.1 123 0 1 1
-3.5 0.4 0.4 77 0 1 2
-3.5 0.4 0.5 112 0 1 2
-3.5 0.5 0.6 124 0 1 2
-3.5 0.7 0.6 137 0 1 2
-3.5 1.1 0.3 120 0 1 2
-3.4 0.5 0.7 131 0 1 2
-3.4 0.6 0.7 116 0 1 2
-3.4 0.9 0.5 107 0 1 2
-3.4 1 0.4 112 0 1 2
-3.4 1.1 0.4 124 0 1 2
-3.3 0.6 0.7 143 0 1 2
-3.3 0.7 0.6 137 0 1 2
-3.3 0.7 0.7 143 0 1 2
-3.3 0.8 0.6 127 0 1 2
-3.3 1 0.5 106 0 1 2
-3.2 0.4 0.5 76 0 1 2
-3.2 0.5 0.6 102 0 1 2
-3.2 0.7 0.7 126 0 1 2
-3.2 0.8 0.6 137 0 1 2
-3.2 0.9 0.5 105 0 1 2
-3.2 1 0.5 120 0 1 2
-3.2 1.1 0.4 122 0 1 2
-3.1 0.4 0.4 60 0 1 2
-3.1 0.5 0.6 125 0 1 2
-3.1 0.6 0.6 142 0 1 2
-3.1 0.6 0.7 133 0 1 2
-3.1 0.7 0.7 133 0 1 2
-3.1 0.8 0.6 138 0 1 2
-3.1 1 0.5 129 0 1 2
-3.1 1.1 0.3 102 0 1 2
-3.1 1.1 0.4 121 0 1 2
-3 0.4 0.4 81 0 1 2
-3 0.4 0.5 63 0 1 2
-3 0.5 0.5 100 0 1 2
-3 0.5 0.6 127 0 1 2
-3 0.6 0.5 117 0 1 2
-3 0.6 0.6 129 0 1 2
-3 0.8 0.6 143 0 1 2
-3 0.9 0.6 114 0 1 2
-3 1 0.5 106 0 1 2
-3 1.1 0.4 119 0 1 2
-3 1.6 0.2 111 0 1 1
-3 2.2 0.2 119 0 1 1
-3 2.9 0.1 115 0 1 1
-2.9 -2.4 0.4 115 0 1 1
-2.9 -1.8 0.4 137 0 1 1
-2.9 -1.1 0.4 127 0 1 1
-2.9 -0.4 0.4 132 0 1 1
-2.9 0.2 0.3 127 0 1 1
-2.9 0.6 0.4 139 0 1 2
-2.9 0.6 0.5 133 0 1 2
-2.9 0.9 0.4 135 0 1 2
-2.9 1.1 0.4 130 0 1 2
-2.8 0.8 0.3 133 0 1 2
-2.8 0.8 0.4 135 0 1 2
-2.8 1 0.3 118 0 1 2
-2.8 1 0.4 140 0 1 2
-2.8 1.1 0.3 150 0 1 2
-2.8 1.1 0.4 146 0 1 2
