-20 -20 0 89 0 1 1
-20 -19.3 0 88 0 1 1
-20 -18.5 0 92 0 1 1
-20 -17.7 0 92 0 1 1
-20 -16.9 0 93 0 1 1
-20 -16.1 0 94 0 1 1
-20 -15.3 0 89 0 1 1
-20 -14.6 0 92 0 1 1
-20 -13.8 0 87 0 1 1
-20 -13 0 94 0 1 1
-20 -12.2 0 92 0 1 1
-20 -11.4 0 93 0 1 1
-20 -10.6 0 89 0 1 1
-20 -9.9 0 93 0 1 1
-20 -9.1 0 84 0 1 1
-20 -8.3 0 87 0 1 1
-20 -7.5 0 91 0 1 1
-20 -6.7 0 94 0 1 1
-20 -5.9 0 93 0 1 1
-20 -5.1 0 89 0 1 1
-20 -4.4 0 92 0 1 1
-20 2.7 0 95 0 1 1
-20 3.5 0 92 0 1 1
-20 4.3 0 91 0 1 1
-20 5 0 94 0 1 1
-20 5.8 0 91 0 1 1
-20 6.6 0 93 0 1 1
-20 7.4 0 93 0 1 1
-20 8.2 0 96 0 1 1
-20 9 0 93 0 1 1
-20 9.8 0 93 0 1 1
-20 10.5 0 94 0 1 1
-20 11.3 0 96 0 1 1
-20 12.1 0 90 0 1 1
-19.3 -19.3 0 139 0 1 1
-19.3 -18.5 0 145 0 1 1
-19.3 -17.7 0 146 0 1 1
-19.3 -16.9 0 143 0 1 1
-19.3 -16.1 0 137 0 1 1
-19.3 -15.3 0 140 0 1 1
-19.3 -14.6 0 141 0 1 1
-19.3 -13.8 0 144 0 1 1
-19.3 -13 0 146 0 1 1
-19.3 -12.2 0 134 0 1 1
-19.3 -11.4 0 144 0 1 1
-19.3 -10.6 0 142 0 1 1
-19.3 -9.9 0 143 0 1 1
-19.3 -9.1 0 145 0 1 1
-19.3 -8.3 0 144 0 1 1
-19.3 -7.5 0 139 0 1 1
-19.3 -6.7 0 139 0 1 1
-19.3 -5.9 0 149 0 1 1
-19.3 -5.1 0 143 0 1 1
-19.3 -4.4 0 145 0 1 1
-19.3 2.7 0 138 0 1 1
-19.3 3.5 0 147 0 1 1
-19.3 4.3 0 149 0 1 1
-19.3 5 0 150 0 1 1
-19.3 5.8 0 149 0 1 1
-19.3 6.6 0 141 0 1 1
-19.3 7.4 0 148 0 1 1
-19.3 8.2 0 145 0 1 1
-19.3 9 0 147 0 1 1
-19.3 9.8 0 147 0 1 1
-19.3 10.5 0 149 0 1 1
-19.3 11.3 0 150 0 1 1
-18.5 -18.5 0 142 0 1 1
-18.5 -17.7 0 138 0 1 1
-18.5 -16.9 0 136 0 1 1
-18.5 -16.1 0 138 0 1 1
-18.5 -15.3 0 140 0 1 1
-18.5 -14.6 0 145 0 1 1
-18.5 -13.8 0 140 0 1 1
-18.5 -13 0 147 0 1 1
-18.5 -12.2 0 137 0 1 1
-18.5 -11.4 0 142 0 1 1
-18.5 -10.6 0 148 0 1 1
-18.5 -9.9 0 145 0 1 1
-18.5 -9.1 0 144 0 1 1
-18.5 -8.3 0 149 0 1 1
-18.5 -7.5 0 138 0 1 1
-18.5 -6.7 0 146 0 1 1
-18.5 -5.9 0 145 0 1 1
-18.5 -5.1 0 150 0 1 1
-18.5 -4.4 0 152 0 1 1
-18.5 -3.6 0 150 0 1 1
-18.5 1.9 0 145 0 1 1
-18.5 2.7 0 146 0 1 1
-18.5 3.5 0 151 0 1 1
-18.5 4.3 0 144 0 1 1
-18.5 5 0 139 0 1 1
-18.5 5.8 0 148 0 1 1
-18.5 6.6 0 136 0 1 1
-18.5 7.4 0 140 0 1 1
-18.5 8.2 0 150 0 1 1
-18.5 9 0 151 0 1 1
-18.5 9.8 0 146 0 1 1
-18.5 10.5 0 147 0 1 1
-18.5 11.3 0 153 0 1 1
-17.7 -17.7 0 137 0 1 1
-17.7 -16.9 0 148 0 1 1
-17.7 -16.1 0 147 0 1 1
-17.7 -15.3 0 148 0 1 1
-17.7 -14.6 0 144 0 1 1
-17.7 -13.8 0 148 0 1 1
-17.7 -13 0 145 0 1 1
-17.7 -12.2 0 139 0 1 1
-17.7 -11.4 0 147 0 1 1
-17.7 -10.6 0 144 0 1 1
-17.7 -9.9 0 145 0 1 1
-17.7 -9.1 0 133 0 1 1
-17.7 -8.3 0 153 0 1 1
-17.7 -7.5 0 149 0 1 1
-17.7 -6.7 0 155 0 1 1
-17.7 -5.9 0 149 0 1 1
-17.7 -5.1 0 143 0 1 1
-17.7 -4.4 0 139 0 1 1
-17.7 -3.6 0 143 0 1 1
-17.7 1.9 0 152 0 1 1
-17.7 2.7 0 145 0 1 1
-17.7 3.5 0 151 0 1 1
-17.7 4.3 0 151 0 1 1
-17.7 5 0 145 0 1 1
-17.7 5.8 0 146 0 1 1
-17.7 6.6 0 145 0 1 1
-17.7 7.4 0 146 0 1 1
-17.7 8.2 0 144 0 1 1
-17.7 9 0 141 0 1 1
-17.7 9.8 0 151 0 1 1
-17.7 10.5 0 148 0 1 1
-16.9 -16.9 0 149 0 1 1
-16.9 -16.1 0 147 0 1 1
-16.9 -15.3 0 146 0 1 1
-16.9 -14.6 0 150 0 1 1
-16.9 -13.8 0 143 0 1 1
-16.9 -13 0 151 0 1 1
-16.9 -12.2 0 143 0 1 1
-16.9 -11.4 0 149 0 1 1
-16.9 -10.6 0 141 0 1 1
-16.9 -9.9 0 143 0 1 1
-16.9 -9.1 0 148 0 1 1
-16.9 -8.3 0 146 0 1 1
-16.9 -7.5 0 142 0 1 1
-16.9 -6.7 0 139 0 1 1
-16.9 -5.9 0 147 0 1 1
-16.9 -5.1 0 147 0 1 1
-16.9 -4.4 0 142 0 1 1
-16.9 -3.6 0 150 0 1 1
-16.9 1.9 0 147 0 1 1
-16.9 2.7 0 146 0 1 1
-16.9 3.5 0 148 0 1 1
-16.9 4.3 0 151 0 1 1
-16.9 5 0 149 0 1 1
-16.9 5.8 0 144 0 1 1
-16.9 6.6 0 147 0 1 1
-16.9 7.4 0 147 0 1 1
-16.9 8.2 0 151 0 1 1
-16.9 9 0 154 0 1 1
-16.9 9.8 0 148 0 1 1
-16.9 10.5 0 148 0 1 1
-16.5 10.5 1.2 102 0 1 3
-16.5 10.6 1.2 100 0 1 3
-16.5 10.7 1.3 89 0 1 3
-16.4 10.4 1 110 0 1 3
-16.3 10.2 0.3 86 0 1 3
-16.3 10.2 0.9 89 0 1 3
-16.2 10.3 0.9 110 0 1 3
-16.1 -16.1 0 146 0 1 1
-16.1 -15.3 0 151 0 1 1
-16.1 -14.6 0 149 0 1 1
-16.1 -13.8 0 149 0 1 1
-16.1 -13 0 145 0 1 1
-16.1 -12.2 0 145 0 1 1
-16.1 -11.4 0 151 0 1 1
-16.1 -10.6 0 150 0 1 1
-16.1 -9.9 0 143 0 1 1
-16.1 -9.1 0 149 0 1 1
-16.1 -8.3 0 146 0 1 1
-16.1 -7.5 0 142 0 1 1
-16.1 -6.7 0 148 0 1 1
-16.1 -5.9 0 151 0 1 1
-16.1 -5.1 0 151 0 1 1
-16.1 -4.4 0 144 0 1 1
-16.1 -3.6 0 154 0 1 1
-16.1 1.9 0 140 0 1 1
-16.1 2.7 0 149 0 1 1
-16.1 3.5 0 142 0 1 1
-16.1 4.3 0 145 0 1 1
-16.1 5 0 148 0 1 1
-16.1 5.8 0 149 0 1 1
-16.1 6.6 0 149 0 1 1
-16.1 7.4 0 149 0 1 1
-16.1 8.2 0 144 0 1 1
-16.1 9 0 143 0 1 1
-16.1 9.8 0 149 0 1 1
-16.1 10.1 0.2 64 0 1 3
-16.1 10.1 0.8 105 0 1 3
-15.9 10 0.1 62 0 1 3
-15.9 10 0.7 62 0 1 3
-15.3 -15.3 0 146 0 1 1
-15.3 -14.6 0 148 0 1 1
-15.3 -13.8 0 152 0 1 1
-15.3 -13 0 153 0 1 1
-15.3 -12.2 0 154 0 1 1
-15.3 -11.4 0 153 0 1 1
-15.3 -10.6 0 143 0 1 1
-15.3 -9.9 0 142 0 1 1
-15.3 -9.1 0 150 0 1 1
-15.3 -8.3 0 148 0 1 1
-15.3 -7.5 0 148 0 1 1
-15.3 -6.7 0 136 0 1 1
-15.3 -5.9 0 146 0 1 1
-15.3 -5.1 0 145 0 1 1
-15.3 -4.4 0 144 0 1 1
-15.3 -3.6 0 148 0 1 1
-15.3 1.9 0 147 0 1 1
-15.3 2.7 0 149 0 1 1
-15.3 3.5 0 153 0 1 1
-15.3 4.3 0 151 0 1 1
-15.3 5 0 153 0 1 1
-15.3 5.8 0 151 0 1 1
-15.3 6.6 0 149 0 1 1
-15.3 7.4 0 151 0 1 1
-15.3 8.2 0 153 0 1 1
-15.3 9 0 146 0 1 1
-15.3 9.8 0 151 0 1 1
-15.2 10.1 0.1 55 0 1 3
-15.1 -2.6 0.7 102 0 1 3
-15.1 -2.5 0.8 129 0 1 3
-15.1 10.1 0.8 94 0 1 3
-14.9 -2.7 0.6 77 0 1 3
-14.9 10.7 1.5 117 0 1 3
-14.8 -2.7 0.5 96 0 1 3
-14.7 -2.7 0.1 88 0 1 3
-14.7 -2.7 0.4 137 0 1 3
-14.7 10.9 1.7 127 0 1 3
-14.7 11 1.8 94 0 1 3
-14.6 -14.6 0 139 0 1 1
-14.6 -13.8 0 152 0 1 1
-14.6 -13 0 153 0 1 1
-14.6 -12.2 0 148 0 1 1
-14.6 -11.4 0 148 0 1 1
-14.6 -10.6 0 152 0 1 1
-14.6 -9.9 0 142 0 1 1
-14.6 -9.1 0 154 0 1 1
-14.6 -8.3 0 149 0 1 1
-14.6 -7.5 0 153 0 1 1
-14.6 -5.9 0 149 0 1 1
-14.6 -5.1 0 141 0 1 1
-14.6 -4.4 0 148 0 1 1
-14.6 -3.6 0 141 0 1 1
-14.6 -2.8 0 143 0 1 1
-14.6 1.9 0 133 0 1 1
-14.6 2.7 0 153 0 1 1
-14.6 3.5 0 153 0 1 1
-14.6 4.3 0 152 0 1 1
-14.6 5 0 150 0 1 1
-14.6 5.8 0 155 0 1 1
-14.6 6.6 0 157 0 1 1
-14.6 7.4 0 150 0 1 1
-14.6 8.2 0 153 0 1 1
-14.6 9 0 152 0 1 1
-14.6 9.8 0 146 0 1 1
-14.6 10.5 1.2 113 0 1 3
-14.5 -2.7 0 108 0 1 3
-14.5 -2.7 0.3 120 0 1 3
-14.3 10.1 0.2 61 0 1 3
-14.3 10.1 0.9 110 0 1 3
-14.2 1.3 0 139 0 1 3
-14.1 -2.5 0 89 0 1 3
-14.1 -2.5 0.4 103 0 1 3
-14.1 -2 0.9 129 0 1 3
-14.1 -1.8 1 128 0 1 3
-14.1 -1.8 1.1 128 0 1 3
-14.1 -0.3 1.4 102 0 1 3
-14.1 1.4 0.6 89 0 1 3
-14.1 10.2 1 103 0 1 3
-14 1.4 0.3 106 0 1 3
-14 1.4 0.4 124 0 1 3
-14 10.2 0.5 89 0 1 3
-14 10.2 1 99 0 1 3
-13.9 -2.1 0.7 124 0 1 3
-13.9 0.5 1.2 130 0 1 3
-13.9 1.3 0.5 106 0 1 3
-13.9 1.3 0.8 85 0 1 3
-13.9 10.2 0.6 111 0 1 3
-13.8 -13.8 0 152 0 1 1
-13.8 -13 0 133 0 1 1
-13.8 -12.2 0 149 0 1 1
-13.8 -11.4 0 145 0 1 1
-13.8 -10.6 0 153 0 1 1
-13.8 -9.9 0 150 0 1 1
-13.8 -9.1 0 141 0 1 1
-13.8 -8.3 0 139 0 1 1
-13.8 -7.5 0 143 0 1 1
-13.8 -5.1 0 145 0 1 1
-13.8 -4.4 0 111 0 1 1
-13.8 -3.6 0 153 0 1 1
-13.8 -2.8 0 150 0 1 1
-13.8 1.1 0 157 0 1 1
-13.8 1.3 0.3 92 0 1 3
-13.8 1.9 0 150 0 1 1
-13.8 2.7 0 129 0 1 1
-13.8 3.5 0 155 0 1 1
-13.8 4.3 0 139 0 1 1
-13.8 5 0 134 0 1 1
-13.8 5.8 0 156 0 1 1
-13.8 6.6 0 151 0 1 1
-13.8 7.4 0 156 0 1 1
-13.8 8.2 0 151 0 1 1
-13.8 9 0 159 0 1 1
-13.8 9.8 0 159 0 1 1
-13.8 10.3 0.5 122 0 1 3
-13.7 1.2 0.4 99 0 1 3
-13.7 1.2 0.7 101 0 1 3
-13.7 1.2 1 115 0 1 3
-13.7 10.2 0.1 79 0 1 3
-13.7 10.5 1.4 115 0 1 3
-13.7 13 2.3 101 0 1 3
-13.6 -2.2 0.1 97 0 1 3
-13.6 -2.2 0.5 123 0 1 3
-13.6 -0.7 1.4 137 0 1 3
-13.6 1.2 0.6 119 0 1 3
-13.6 1.2 0.9 117 0 1 3
-13.6 10.3 0 110 0 1 3
-13.6 10.6 1.4 96 0 1 3
-13.5 -2.1 0.5 121 0 1 3
-13.5 -0.6 1.4 131 0 1 3
-13.5 1.1 0.8 120 0 1 3
-13.5 10.3 0 114 0 1 3
-13.5 10.6 1.3 88 0 1 3
-13.4 -2.1 0.2 101 0 1 3
-13.4 -2.1 0.6 104 0 1 3
-13.4 -2 0.3 118 0 1 3
-13.4 -1.8 0.8 121 0 1 3
-13.4 -0.5 1.4 141 0 1 3
-13.4 0.2 1.2 147 0 1 3
-13.4 1 0.3 74 0 1 3
-13.3 -2 0 111 0 1 3
-13.3 -2 0.2 131 0 1 3
-13.3 -1.8 0.8 112 0 1 3
-13.3 0 1.2 155 0 1 3
-13.3 0.7 -0.1 150 0 1 3
-13.3 1 1 135 0 1 3
-13.2 -1.7 0.8 116 0 1 3
-13.2 -1.4 1.1 125 0 1 3
-13.2 0.9 0.9 116 0 1 3
-13.2 1 0.4 70 0 1 3
-13.2 1 0.7 122 0 1 3
-13.2 10.7 0.8 119 0 1 3
-13.2 10.9 1.8 109 0 1 3
-13.2 12.2 2.3 144 0 1 3
-13.1 -1.6 0.4 131 0 1 3
-13.1 -1.4 1 135 0 1 3
-13.1 -1.2 1.2 134 0 1 3
-13.1 -1.1 1.4 100 0 1 3
-13.1 11 1.7 121 0 1 3
-13 -13 0 152 0 1 1
-13 -12.2 0 148 0 1 1
-13 -11.4 0 158 0 1 1
-13 -10.6 0 149 0 1 1
-13 -9.9 0 146 0 1 1
-13 -9.1 0 154 0 1 1
-13 -8.3 0 148 0 1 1
-13 -7.5 0 147 0 1 1
-13 -6.7 0 147 0 1 1
-13 -4.4 0 152 0 1 1
-13 -3.6 0 140 0 1 1
-13 -2.8 0 144 0 1 1
-13 -2 0 150 0 1 1
-13 -1.3 0.9 139 0 1 3
-13 -1.2 1.1 136 0 1 3
-13 -1.1 1.4 123 0 1 3
-13 -1 1.4 148 0 1 3
-13 -0.9 1.4 133 0 1 3
-13 1.1 -0.1 149 0 1 1
-13 1.5 -0.2 120 0 1 1
-13 1.9 -0.4 109 0 1 1
-13 2.3 -0.4 138 0 1 1
-13 2.7 -0.4 146 0 1 1
-13 3.1 -0.4 142 0 1 1
-13 3.5 -0.4 139 0 1 1
-13 3.9 -0.2 92 0 1 1
-13 4.3 -0.1 147 0 1 1
-13 5 0 155 0 1 1
-13 5.8 0 155 0 1 1
-13 6.6 0 155 0 1 1
-13 7.4 0 146 0 1 1
-13 8.2 0 148 0 1 1
-13 9 0 152 0 1 1
-13 9.8 0 147 0 1 1
-13 10.5 0 152 0 1 1
-13 11.1 2 126 0 1 3
-12.9 -1.3 -0.1 150 0 1 3
-12.9 -0.8 1.3 149 0 1 3
-12.9 -0.8 1.4 147 0 1 3
-12.9 10.8 -0.1 159 0 1 3
-12.9 11 1.6 128 0 1 3
-12.9 11.3 2.2 111 0 1 3
-12.9 12.3 2.2 147 0 1 3
-12.8 -1 0.5 132 0 1 3
-12.8 0.7 0.4 106 0 1 3
-12.8 0.7 0.7 130 0 1 3
-12.8 0.7 1 120 0 1 3
-12.8 11.1 1.9 127 0 1 3
-12.8 11.3 2.2 105 0 1 3
-12.7 -0.8 1.1 133 0 1 3
-12.7 -0.6 1.3 145 0 1 3
-12.7 0.4 0 71 0 1 3
-12.7 0.5 1 140 0 1 3
-12.7 0.6 0.3 124 0 1 3
-12.7 0.6 0.6 117 0 1 3
-12.7 0.6 1 128 0 1 3
-12.7 10.9 0.1 104 0 1 3
-12.7 11.3 2.2 120 0 1 3
-12.7 11.4 2.2 142 0 1 3
-12.7 11.4 2.3 96 0 1 3
-12.6 -0.8 0 128 0 1 3
-12.6 -0.4 1.2 142 0 1 3
-12.6 -0.1 1.2 137 0 1 3
-12.6 1.1 -0.2 126 0 1 1
-12.6 1.5 -0.5 110 0 1 4
-12.6 3.9 -0.5 112 0 1 4
-12.6 4.3 -0.2 150 0 1 1
-12.6 11.5 2.3 106 0 1 3
-12.5 -0.7 0 113 0 1 3
-12.5 -0.5 0.6 142 0 1 3
-12.5 -0.4 0.6 144 0 1 3
-12.5 -0.2 1.2 141 0 1 3
-12.5 -0.1 0.4 135 0 1 3
-12.5 0.1 0.7 135 0 1 3
-12.5 0.1 1.1 146 0 1 3
-12.5 0.3 -0.1 156 0 1 3
-12.5 0.3 1.1 141 0 1 3
-12.5 0.4 0.2 86 0 1 3
-12.5 0.4 0.6 113 0 1 3
-12.5 0.4 1 137 0 1 3
-12.5 0.5 1 141 0 1 3
-12.5 11.2 0.9 104 0 1 3
-12.4 -0.5 0 92 0 1 3
-12.4 11.5 2.2 146 0 1 3
-12.4 11.6 2.2 143 0 1 3
-12.2 -12.2 0 148 0 1 1
-12.2 -11.4 0 139 0 1 1
-12.2 -10.6 0 157 0 1 1
-12.2 -9.9 0 155 0 1 1
-12.2 -9.1 0 148 0 1 1
-12.2 -8.3 0 147 0 1 1
-12.2 -7.5 0 140 0 1 1
-12.2 -6.7 0 142 0 1 1
-12.2 -4.4 0 146 0 1 1
-12.2 -3.6 0 147 0 1 1
-12.2 -2.8 0 150 0 1 1
-12.2 -2 0 154 0 1 1
-12.2 -1.2 0 155 0 1 1
-12.2 -0.4 0 147 0 1 1
-12.2 0.3 0 137 0 1 1
-12.2 1.1 -0.4 138 0 1 1
-12.2 4.3 -0.4 77 0 1 1
-12.2 5 0 151 0 1 1
-12.2 5.8 0 154 0 1 1
-12.2 6.6 0 146 0 1 1
-12.2 7.4 0 143 0 1 1
-12.2 8.2 0 150 0 1 1
-12.2 9 0 151 0 1 1
-12.2 9.8 0 152 0 1 1
-12.2 10.5 0 147 0 1 1
-12.2 11.3 0 124 0 1 1
-12.2 11.5 1.7 125 0 1 3
-12.1 11.4 0 41 0 1 3
-12.1 11.7 2.1 147 0 1 3
-12 11.4 0.2 92 0 1 3
-12 11.5 0 56 0 1 3
-11.8 1.1 -0.4 122 0 1 1
-11.8 4.3 -0.4 133 0 1 1
-11.8 11.5 0.2 90 0 1 3
-11.6 11.6 0.1 95 0 1 3
-11.4 -11.4 0 143 0 1 1
-11.4 -10.6 0 155 0 1 1
-11.4 -9.9 0 152 0 1 1
-11.4 -9.1 0 142 0 1 1
-11.4 -8.3 0 151 0 1 1
-11.4 -7.5 0 147 0 1 1
-11.4 -6.7 0 151 0 1 1
-11.4 -5.9 0 143 0 1 1
-11.4 -3.6 0 136 0 1 1
-11.4 -2.8 0 138 0 1 1
-11.4 -2 0 139 0 1 1
-11.4 -1.2 0 141 0 1 1
-11.4 -0.4 0 157 0 1 1
-11.4 0.3 0 150 0 1 1
-11.4 1.1 -0.4 142 0 1 1
-11.4 4.3 -0.4 105 0 1 1
-11.4 5 0 159 0 1 1
-11.4 5.8 0 144 0 1 1
-11.4 6.6 0 147 0 1 1
-11.4 7.4 0 155 0 1 1
-11.4 8.2 0 154 0 1 1
-11.4 9 0 149 0 1 1
-11.4 9.8 0 153 0 1 1
-11.4 10.5 0 146 0 1 1
-11.4 11.3 0 159 0 1 1
-11 4.3 -0.4 115 0 1 1
-10.9 -4.5 0.4 144 0 1 2
-10.9 -4.4 0.4 141 0 1 2
-10.9 -4.3 0.3 143 0 1 2
-10.9 -4.1 0 138 0 1 2
-10.8 -5.1 0.4 155 0 1 2
-10.8 -4.6 0.5 152 0 1 2
-10.8 -4.2 0.3 140 0 1 2
-10.7 -5 0.5 152 0 1 2
-10.7 -4.9 0.5 154 0 1 2
-10.7 -4.7 0.4 165 0 1 2
-10.7 -4.7 0.5 156 0 1 2
-10.7 -4.6 0.5 156 0 1 2
-10.7 -4.4 0.4 149 0 1 2
-10.7 -4.3 0.3 158 0 1 2
-10.7 -4.2 0.3 137 0 1 2
-10.7 -4.1 0.2 132 0 1 2
-10.6 -10.6 0 136 0 1 1
-10.6 -9.9 0 156 0 1 1
-10.6 -9.1 0 149 0 1 1
-10.6 -8.3 0 145 0 1 1
-10.6 -7.5 0 141 0 1 1
-10.6 -6.7 0 154 0 1 1
-10.6 -5.9 0 142 0 1 1
-10.6 -5.5 0.1 142 0 1 2
-10.6 -5.1 0.4 154 0 1 2
-10.6 -5 0.4 155 0 1 2
-10.6 -4.9 0.4 161 0 1 2
-10.6 -4.6 0.3 158 0 1 2
-10.6 -4.4 0.3 137 0 1 2
-10.6 -4.3 0.3 156 0 1 2
-10.6 -4.2 0.2 157 0 1 2
-10.6 -4.1 0.2 142 0 1 2
-10.6 -3.6 0 135 0 1 1
-10.6 -2.8 0 151 0 1 1
-10.6 -2 0 135 0 1 1
-10.6 -0.4 0 151 0 1 1
-10.6 0.3 0 150 0 1 1
-10.6 5 0 150 0 1 1
-10.6 5.8 0 143 0 1 1
-10.6 6.6 0 137 0 1 1
-10.6 8.2 0 152 0 1 1
-10.6 9 0 151 0 1 1
-10.6 9.8 0 151 0 1 1
-10.6 10.5 0 156 0 1 1
-10.5 -5.2 0.3 148 0 1 2
-10.5 -5.2 0.4 154 0 1 2
-10.5 -4.9 0.3 166 0 1 2
-10.5 -4.6 0.2 157 0 1 2
-10.5 -4.2 0.2 153 0 1 2
-10.4 -5.5 0 140 0 1 2
-10.4 -5.2 0.3 160 0 1 2
-10.4 -5 0.2 160 0 1 2
-10.4 -4.7 0.2 157 0 1 2
-10.4 -4.5 0.1 152 0 1 2
-10.4 -4.2 0.1 160 0 1 2
-10.3 -5.5 0 135 0 1 2
-10.3 -5.4 0.1 144 0 1 2
-10.3 -5.3 0.1 139 0 1 2
-10.3 -5.3 0.2 159 0 1 2
-10.3 -5.2 0.2 156 0 1 2
-10.3 -4.9 0.2 161 0 1 2
-10.3 -4.3 0 154 0 1 2
-10.3 -4.2 0 128 0 1 2
-10.3 -4.1 0 139 0 1 2
-10.3 4.3 -0.2 124 0 1 1
-10.2 -5.5 0 137 0 1 2
-10.2 -5.4 0 143 0 1 2
-10.2 -5.3 0.1 136 0 1 2
-10.2 -5.2 0.1 141 0 1 2
-10.2 -5 0 147 0 1 2
-10.2 -5 0.1 154 0 1 2
-10.2 -4.9 0 155 0 1 2
-10.2 -4.9 0.1 159 0 1 2
-10.2 -4.8 0.1 161 0 1 2
-10.2 -4.7 0 151 0 1 2
-10.2 -4.6 0 155 0 1 2
-10.2 -4.3 0 122 0 1 2
-10.2 -4.2 -0.1 152 0 1 2
-9.9 -9.9 0 144 0 1 1
-9.9 -9.1 0 148 0 1 1
-9.9 -8.3 0 148 0 1 1
-9.9 -7.5 0 128 0 1 1
-9.9 -6.7 0 130 0 1 1
-9.9 -5.9 0 158 0 1 1
-9.9 -5.1 0 147 0 1 1
-9.9 -4.4 0 145 0 1 1
-9.9 -3.6 0 106 0 1 1
-9.9 -2.8 0 153 0 1 1
-9.9 -2 0 156 0 1 1
-9.9 -0.4 0 157 0 1 1
-9.9 0.3 0 148 0 1 1
-9.9 1.1 -0.1 143 0 1 1
-9.9 1.5 -0.2 137 0 1 1
-9.9 4.3 -0.1 133 0 1 1
-9.9 5 0 157 0 1 1
-9.9 5.8 0 153 0 1 1
-9.9 8.2 0 159 0 1 1
-9.9 9 0 155 0 1 1
-9.9 9.8 0 156 0 1 1
-9.2 -1.2 0.2 130 0 1 2
-9.2 6.1 0.2 139 0 1 2
-9.2 6.2 0.3 144 0 1 2
-9.1 -9.1 0 141 0 1 1
-9.1 -8.3 0 141 0 1 1
-9.1 -7.5 0 127 0 1 1
-9.1 -6.7 0 126 0 1 1
-9.1 -5.9 0 163 0 1 1
-9.1 -5.1 0 154 0 1 1
-9.1 -4.4 0 98 0 1 1
-9.1 -3.6 0 147 0 1 1
-9.1 -2.8 0 126 0 1 1
-9.1 -2 0 138 0 1 1
-9.1 -1.4 0.2 140 0 1 2
-9.1 -1.3 0.2 114 0 1 2
-9.1 -1 0.3 157 0 1 2
-9.1 -0.9 0.3 153 0 1 2
-9.1 -0.4 0 132 0 1 1
-9.1 0.3 0 142 0 1 1
-9.1 1.1 0 130 0 1 1
-9.1 1.9 0 143 0 1 1
-9.1 2.7 0 138 0 1 1
-9.1 3.5 0 101 0 1 1
-9.1 4.3 0 138 0 1 1
-9.1 5 0 130 0 1 1
-9.1 5.8 0.2 148 0 1 2
-9.1 5.9 0.2 139 0 1 2
-9.1 6 0.2 137 0 1 2
-9.1 6.3 0.3 140 0 1 2
-9.1 7.4 0 156 0 1 1
-9.1 8.2 0 160 0 1 1
-9.1 9 0 150 0 1 1
-9 -1.5 0.1 154 0 1 2
-9 -1.5 0.2 147 0 1 2
-9 -0.9 0.3 150 0 1 2
-9 5.8 0 59 0 1 2
-9 5.8 0.1 148 0 1 2
-9 5.8 0.2 149 0 1 2
-9 6.1 0.3 134 0 1 2
-9 6.2 0.3 136 0 1 2
-9 6.4 0.3 152 0 1 2
-8.9 -1.5 0.1 146 0 1 2
-8.9 -1.3 0.3 125 0 1 2
-8.9 -1 0.3 148 0 1 2
-8.9 -0.9 0.3 134 0 1 2
-8.9 -0.8 0.3 141 0 1 2
-8.9 5.8 0.1 146 0 1 2
-8.9 6 0.3 134 0 1 2
-8.9 6.2 0.3 135 0 1 2
-8.9 6.3 0.3 142 0 1 2
-8.9 6.4 0.3 150 0 1 2
-8.8 -1.5 0 124 0 1 2
-8.8 -1.1 0.3 136 0 1 2
-8.8 -0.7 0.2 141 0 1 2
-8.8 5.7 0 98 0 1 2
-8.8 6.1 0.3 136 0 1 2
-8.7 -1.4 0.1 138 0 1 2
-8.7 -1.1 0.3 134 0 1 2
-8.7 -0.9 0.3 150 0 1 2
-8.7 -0.7 0 142 0 1 2
-8.7 -0.7 0.1 136 0 1 2
-8.7 5.9 0.1 134 0 1 2
-8.7 6.1 0.3 136 0 1 2
-8.7 6.3 0.3 154 0 1 2
-8.6 -1.4 0.1 145 0 1 2
-8.6 -1.3 0.1 142 0 1 2
-8.6 -1.1 0.2 126 0 1 2
-8.6 -1.1 0.3 144 0 1 2
-8.6 -0.8 0.2 137 0 1 2
-8.6 -0.7 0.1 108 0 1 2
-8.6 -0.7 0.2 132 0 1 2
-8.6 5.9 0.1 148 0 1 2
-8.6 6.1 0.2 141 0 1 2
-8.6 6.2 0.3 149 0 1 2
-8.6 6.5 0.2 148 0 1 2
-8.5 -1.3 0.1 125 0 1 2
-8.5 -1.1 0.2 95 0 1 2
-8.5 -1 0.2 145 0 1 2
-8.5 6 0.1 127 0 1 2
-8.5 6.2 0.2 95 0 1 2
-8.4 -1.1 0.2 124 0 1 2
-8.4 -1 0.2 143 0 1 2
-8.4 -0.9 0.2 141 0 1 2
-8.4 -0.7 0 103 0 1 2
-8.4 -0.7 0.1 99 0 1 2
-8.4 6.2 0.2 120 0 1 2
-8.4 6.3 0.2 146 0 1 2
-8.4 6.6 0 136 0 1 2
-8.4 6.6 0.1 133 0 1 2
-8.3 -8.3 0 165 0 1 1
-8.3 -7.5 0 142 0 1 1
-8.3 -6.7 0 152 0 1 1
-8.3 -5.9 0 157 0 1 1
-8.3 -5.1 0 160 0 1 1
-8.3 -4.4 0 155 0 1 1
-8.3 -3.6 0 135 0 1 1
-8.3 -2.8 0 132 0 1 1
-8.3 -2 0 145 0 1 1
-8.3 -1.3 0 127 0 1 2
-8.3 -1.2 0 146 0 1 2
-8.3 -1.1 0 128 0 1 2
-8.3 -1.1 0.1 136 0 1 2
-8.3 -1 0 94 0 1 2
-8.3 -1 0.2 157 0 1 2
-8.3 -0.9 0 76 0 1 2
-8.3 -0.9 0.1 156 0 1 2
-8.3 -0.9 0.2 156 0 1 2
-8.3 -0.8 0 124 0 1 2
-8.3 -0.8 0.1 142 0 1 2
-8.3 -0.8 0.2 153 0 1 2
-8.3 -0.7 0.1 132 0 1 2
-8.3 -0.4 0 147 0 1 1
-8.3 0.3 0 154 0 1 1
-8.3 1.1 0 160 0 1 1
-8.3 1.9 0 147 0 1 1
-8.3 2.7 0 145 0 1 1
-8.3 3.5 0 141 0 1 1
-8.3 4.3 0 152 0 1 1
-8.3 5 0 160 0 1 1
-8.3 5.8 0 160 0 1 1
-8.3 6 0 139 0 1 2
-8.3 6.1 0 147 0 1 2
-8.3 6.1 0.1 128 0 1 2
-8.3 6.2 0 87 0 1 2
-8.3 6.2 0.1 122 0 1 2
-8.3 6.2 0.2 140 0 1 2
-8.3 6.3 0.2 154 0 1 2
-8.3 6.4 0 95 0 1 2
-8.3 6.4 0.1 153 0 1 2
-8.3 6.4 0.2 154 0 1 2
-8.3 6.5 0 129 0 1 2
-8.3 6.5 0.1 143 0 1 2
-8.3 6.5 0.2 157 0 1 2
-8.3 6.6 0 159 0 1 1
-8.3 7.4 0 155 0 1 1
-8.3 8.2 0 156 0 1 1
-8.2 -1 0 114 0 1 2
-8.2 -1 0.1 135 0 1 2
-8.2 -0.9 0 117 0 1 2
-8.2 -0.9 0.1 154 0 1 2
-8.2 6.2 0 115 0 1 2
-8.2 6.2 0.1 120 0 1 2
-8.2 6.3 0 127 0 1 2
-8.2 6.3 0.1 143 0 1 2
-8.2 6.4 0.1 136 0 1 2
-7.5 -7.5 0 144 0 1 1
-7.5 -6.7 0 153 0 1 1
-7.5 -5.9 0 148 0 1 1
-7.5 -5.1 0 132 0 1 1
-7.5 -4.4 0 142 0 1 1
-7.5 -3.6 0 138 0 1 1
-7.5 -2.8 0 144 0 1 1
-7.5 -2 0 156 0 1 1
-7.5 -1.2 0 147 0 1 1
-7.5 -0.4 0 145 0 1 1
-7.5 0.3 0 158 0 1 1
-7.5 1.1 0 153 0 1 1
-7.5 1.9 0 142 0 1 1
-7.5 2.7 0 132 0 1 1
-7.5 3.5 0 157 0 1 1
-7.5 4.3 0 156 0 1 1
-7.5 5 0 152 0 1 1
-7.5 5.8 0 93 0 1 1
-7.5 6.6 0 162 0 1 1
-7.5 7.4 0 154 0 1 1
-6.7 -6.7 0 151 0 1 1
-6.7 -5.9 0 159 0 1 1
-6.7 -5.1 0 147 0 1 1
-6.7 -4.4 0 147 0 1 1
-6.7 -3.6 0 145 0 1 1
-6.7 -2.8 0 147 0 1 1
-6.7 -2 0 163 0 1 1
-6.7 -1.2 0 146 0 1 1
-6.7 -0.4 0 148 0 1 1
-6.7 0.3 0 147 0 1 1
-6.7 1.1 0 162 0 1 1
-6.7 1.9 0 144 0 1 1
-6.7 2.7 0 139 0 1 1
-6.7 3.5 0 146 0 1 1
-6.7 4.3 0 143 0 1 1
-6.7 5 0 108 0 1 1
-6.7 5.8 0 124 0 1 1
-6.7 6.6 0 158 0 1 1
-5.9 -5.9 0 150 0 1 1
-5.9 -5.1 0 147 0 1 1
-5.9 -4.4 0 132 0 1 1
-5.9 -3.6 0 154 0 1 1
-5.9 -2.8 -0.1 148 0 1 1
-5.9 -2.4 -0.2 144 0 1 1
-5.9 -2 -0.3 86 0 1 1
-5.9 -1.6 -0.3 137 0 1 1
-5.9 -1.2 -0.3 123 0 1 1
-5.9 -0.8 -0.3 120 0 1 1
-5.9 -0.4 -0.3 89 0 1 1
-5.9 -0.1 -0.2 153 0 1 1
-5.9 0.3 -0.1 147 0 1 1
-5.9 1.1 0 148 0 1 1
-5.9 3.5 0 165 0 1 1
-5.9 4.3 0 136 0 1 1
-5.9 5 0 148 0 1 1
-5.9 5.8 0 148 0 1 1
-5.8 1.7 0.1 138 0 1 2
-5.8 1.7 0.2 154 0 1 2
-5.8 1.8 0.2 136 0 1 2
-5.8 1.9 0.2 161 0 1 2
-5.7 1.6 0 57 0 1 2
-5.7 1.6 0.1 137 0 1 2
-5.7 1.7 0.2 125 0 1 2
-5.7 1.8 0.2 132 0 1 2
-5.7 1.9 0.2 143 0 1 2
-5.6 -3.8 0.1 141 0 1 2
-5.6 -3.6 0 117 0 1 2
-5.6 -3.4 0 144 0 1 2
-5.6 -3.3 0 80 0 1 2
-5.6 -3.2 0 91 0 1 2
-5.6 1.6 0 67 0 1 2
-5.6 2 0.2 137 0 1 2
-5.5 -3.3 0.1 152 0 1 2
-5.5 -3.2 0 150 0 1 2
-5.5 -3.2 0.1 135 0 1 2
-5.5 -2.8 -0.2 108 0 1 1
-5.5 -2.4 -0.4 87 0 1 4
-5.5 -2 -0.6 78 0 1 4
-5.5 -1.6 -0.6 90 0 1 4
-5.5 -1.2 -0.6 93 0 1 4
-5.5 -0.8 -0.6 92 0 1 4
-5.5 -0.5 -0.6 117 0 1 4
-5.5 -0.1 -0.4 111 0 1 4
-5.5 0.3 -0.2 120 0 1 1
-5.5 1.6 0 59 0 1 2
-5.5 1.6 0.1 99 0 1 2
-5.5 1.7 0.2 120 0 1 2
-5.5 2 0.3 141 0 1 2
-5.4 -3.9 0.1 144 0 1 2
-5.4 -3.7 0.1 136 0 1 2
-5.4 -3.6 0.1 127 0 1 2
-5.4 -3.5 0.1 99 0 1 2
-5.4 -3.4 0.1 136 0 1 2
-5.4 -3.2 0 101 0 1 2
-5.4 -3.2 0.1 145 0 1 2
-5.4 1.6 0 59 0 1 2
-5.4 1.6 0.1 80 0 1 2
-5.4 1.7 0.2 113 0 1 2
-5.4 1.9 0.3 139 0 1 2
-5.3 -3.8 0.1 132 0 1 2
-5.3 -3.2 0 106 0 1 2
-5.3 1.6 0 114 0 1 2
-5.3 1.6 0.1 94 0 1 2
-5.3 1.7 0.2 112 0 1 2
-5.3 2.1 0.3 145 0 1 2
-5.2 -4 0.1 138 0 1 2
-5.2 -3.2 0 151 0 1 2
-5.2 1.7 -0.1 129 0 1 2
-5.2 1.7 0.1 115 0 1 2
-5.2 1.7 0.2 120 0 1 2
-5.2 1.7 0.3 107 0 1 2
-5.2 1.8 0.3 118 0 1 2
-5.2 1.9 0.3 140 0 1 2
-5.2 2 0.3 148 0 1 2
-5.2 2.2 0.3 163 0 1 2
-5.2 2.4 0 79 0 1 2
-5.1 -5.1 0 115 0 1 1
-5.1 -4.4 0 142 0 1 1
-5.1 -3.9 0.1 138 0 1 2
-5.1 -3.4 0 134 0 1 2
-5.1 -3.2 0 157 0 1 2
-5.1 -2.8 -0.3 97 0 1 1
-5.1 -2.4 -0.6 91 0 1 4
-5.1 -2 -1 109 0 1 4
-5.1 -1.6 -1 106 0 1 4
-5.1 -1.2 -1 92 0 1 4
-5.1 -0.9 -1 106 0 1 4
-5.1 -0.5 -1 94 0 1 4
-5.1 -0.1 -0.6 73 0 1 4
-5.1 0.3 -0.3 131 0 1 1
-5.1 1.1 0 139 0 1 1
-5.1 1.7 0 63 0 1 2
-5.1 1.8 0.1 120 0 1 2
-5.1 1.8 0.3 116 0 1 2
-5.1 2.1 0.3 152 0 1 2
-5.1 2.4 0 134 0 1 2
-5.1 2.4 0.1 125 0 1 2
-5.1 2.4 0.2 124 0 1 2
-5.1 2.7 0 128 0 1 1
-5.1 3.5 0 129 0 1 1
-5.1 4.3 0 163 0 1 1
-5.1 5 0 140 0 1 1
-5 -3.9 0.1 152 0 1 2
-5 -3.8 0.1 141 0 1 2
-5 -3.6 0 136 0 1 2
-5 -3.5 0 159 0 1 2
-5 -3.2 0 153 0 1 2
-5 1.8 0 45 0 1 2
-5 1.8 0.2 116 0 1 2
-5 1.9 0.1 121 0 1 2
-5 1.9 0.3 141 0 1 2
-5 2 0.3 142 0 1 2
-5 2.2 0 89 0 1 2
-5 2.2 0.2 129 0 1 2
-5 2.3 0.1 131 0 1 2
-5 2.3 0.2 130 0 1 2
-5 2.4 0.1 119 0 1 2
-5 2.4 0.2 135 0 1 2
-4.9 -3.8 0 148 0 1 2
-4.9 -3.8 0.1 147 0 1 2
-4.9 -3.7 0 154 0 1 2
-4.9 1.9 -0.1 122 0 1 2
-4.9 1.9 0.1 129 0 1 2
-4.9 1.9 0.3 138 0 1 2
-4.9 2 0 129 0 1 2
-4.9 2 0.1 130 0 1 2
-4.9 2 0.2 147 0 1 2
-4.9 2 0.3 147 0 1 2
-4.9 2.1 0 85 0 1 2
-4.9 2.1 0.1 121 0 1 2
-4.9 2.1 0.2 144 0 1 2
-4.9 2.2 0.1 108 0 1 2
-4.9 2.2 0.2 133 0 1 2
-4.8 -3.7 0 149 0 1 2
-4.8 -3.6 0 154 0 1 2
-4.8 -3.2 -0.1 158 0 1 2
-4.8 -2.8 -0.3 58 0 1 1
-4.8 -2.4 -0.6 74 0 1 4
-4.8 -2 -1 67 0 1 4
-4.8 -1.6 -1 70 0 1 4
-4.8 -1.2 -1 104 0 1 4
-4.8 -0.9 -1 102 0 1 4
-4.8 -0.5 -1 61 0 1 4
-4.8 -0.1 -0.6 99 0 1 4
-4.8 0.3 -0.3 132 0 1 1
-4.7 -3.7 -0.1 142 0 1 2
-4.7 -3.6 -0.1 165 0 1 2
-4.7 -3.3 -0.1 161 0 1 2
-4.6 -3.5 -0.1 117 0 1 2
-4.6 -3.4 -0.1 124 0 1 2
-4.4 -4.4 0 148 0 1 1
-4.4 -3.6 0 156 0 1 1
-4.4 -2.8 -0.3 102 0 1 1
-4.4 -2.4 -0.6 60 0 1 4
-4.4 -0.1 -0.6 57 0 1 4
-4.4 0.3 -0.3 103 0 1 1
-4.4 1.1 0 156 0 1 1
-4.4 1.9 0 150 0 1 1
-4.4 2.7 0 139 0 1 1
-4.4 3.5 0 157 0 1 1
-4.4 4.3 0 156 0 1 1
-4 -2.8 -0.3 142 0 1 1
-4 -2.4 -0.6 88 0 1 4
-4 -0.1 -0.6 69 0 1 4
-4 0.3 -0.3 106 0 1 1
-3.6 -3.6 0 167 0 1 1
-3.6 -2.8 -0.3 140 0 1 1
-3.6 0.3 -0.3 123 0 1 1
-3.6 1.1 0 100 0 1 1
-3.6 1.9 0 149 0 1 1
-3.6 2.7 0 159 0 1 1
-3.6 3.5 0 124 0 1 1
