3.4 -3.5 0 60 0 1 2
3.4 -3.5 0.1 60 0 1 2
3.4 -3.4 0 54 0 1 2
3.4 -3.4 0.1 61 0 1 2
3.4 -3.4 0.2 87 0 1 2
3.4 -3.3 0 58 0 1 2
3.4 -3.3 0.1 52 0 1 2
3.4 -3.3 0.2 94 0 1 2
3.4 -3.2 0 48 0 1 2
3.4 -3.2 0.1 118 0 1 2
3.5 -3.7 0 92 0 1 2
3.5 -3.7 0.1 121 0 1 2
3.5 -3.6 0 57 0 1 2
3.5 -3.6 0.1 73 0 1 2
3.5 -3.6 0.2 156 0 1 2
3.5 -3.5 0 103 0 1 2
3.5 -3.5 0.1 62 0 1 2
3.5 -3.5 0.2 76 0 1 2
3.5 -3.4 0.2 117 0 1 2
3.5 -3.3 0 66 0 1 2
3.5 -3.2 0 134 0 1 2
3.5 -3.1 0 106 0 1 2
3.5 -2.8 0 155 0 1 1
3.5 -2 0 156 0 1 1
3.5 -1.2 0 159 0 1 1
3.5 -0.4 0 156 0 1 1
3.5 0.3 0 168 0 1 1
3.5 1.1 0 138 0 1 1
3.5 1.9 0 158 0 1 1
3.5 2.7 0 140 0 1 1
3.5 3.5 0 159 0 1 1
3.6 -3.4 0.2 134 0 1 2
3.6 -3.3 0.2 124 0 1 2
3.6 -3.1 0.1 113 0 1 2
3.7 -3.3 0.2 88 0 1 2
3.8 -3.6 0.2 126 0 1 2
3.8 -3.5 0.2 143 0 1 2
3.8 -3.3 0.3 147 0 1 2
3.8 -3.2 0.2 123 0 1 2
3.8 -3 0.1 138 0 1 2
3.9 -3.4 0.3 140 0 1 2
3.9 -3.2 0.3 125 0 1 2
3.9 -3 0.1 112 0 1 2
4 -3.3 0.3 146 0 1 2
4 -3.2 0.3 151 0 1 2
4 -2.8 0 129 0 1 2
4 -2.8 0.1 130 0 1 2
4.1 -3.5 0.3 136 0 1 2
4.1 -3.4 0.3 118 0 1 2
4.1 -3.3 0.3 155 0 1 2
4.1 -3.1 0.3 160 0 1 2
4.1 -2.8 0 115 0 1 2
4.2 -3.4 0.3 134 0 1 2
4.2 -3.2 0.3 164 0 1 2
4.2 -2.9 0.2 145 0 1 2
4.2 -2.8 0.1 115 0 1 2
4.3 -4.4 0 160 0 1 1
4.3 -3.4 0.3 160 0 1 2
4.3 -3.3 0.3 151 0 1 2
4.3 -3 0.2 164 0 1 2
4.3 -2.8 0 152 0 1 1
4.3 -2 0 150 0 1 1
4.3 -1.2 0 155 0 1 1
4.3 -0.4 0 156 0 1 1
4.3 0.3 0 132 0 1 1
4.3 1.1 0 148 0 1 1
4.3 1.9 0 128 0 1 1
4.3 2.7 0 168 0 1 1
4.3 3.5 0 175 0 1 1
4.3 4.3 0 177 0 1 1
4.4 -3.3 0.3 142 0 1 2
4.4 -3.2 0.2 156 0 1 2
4.4 -3.1 0.2 145 0 1 2
5 -5.1 0 149 0 1 1
5 -4.4 0 164 0 1 1
5 -3.6 0 163 0 1 1
5 -2.8 0 123 0 1 1
5 -2 0 124 0 1 1
5 -1.2 0 148 0 1 1
5 -0.4 0 157 0 1 1
5 0.3 0 116 0 1 1
5 3.5 0 168 0 1 1
5 4.3 0 169 0 1 1
5 5 0 169 0 1 1
5.4 0.3 0 160 0 1 1
5.4 3.5 0 144 0 1 1
5.8 -5.9 0 134 0 1 1
5.8 -5.1 0 168 0 1 1
5.8 -4.4 0 141 0 1 1
5.8 -3.6 0 171 0 1 1
5.8 -2.8 0 165 0 1 1
5.8 -2 0 139 0 1 1
5.8 -1.2 0 142 0 1 1
5.8 -0.4 0 139 0 1 1
5.8 0.3 0 104 0 1 1
5.8 3.1 -0.7 86 0 1 4
5.8 3.5 0 105 0 1 1
5.8 4.3 0 149 0 1 1
5.8 5 0 169 0 1 1
5.8 5.8 0 173 0 1 1
6.2 0.3 0 133 0 1 1
6.2 3.1 -0.7 74 0 1 4
6.2 3.5 0 155 0 1 1
6.5 5.3 0 60 0 1 2
6.5 5.3 0.2 60 0 1 2
6.5 5.4 -0.1 160 0 1 2
6.5 5.4 0.1 58 0 1 2
6.5 5.4 0.3 80 0 1 2
6.5 5.5 0 59 0 1 2
6.5 5.5 0.1 61 0 1 2
6.5 5.5 0.3 134 0 1 2
6.5 5.6 0 55 0 1 2
6.6 -6.7 0 150 0 1 1
6.6 -5.9 0 147 0 1 1
6.6 -5.5 0 145 0 1 1
6.6 -5.1 0 92 0 1 1
6.6 -4.8 0 97 0 1 1
6.6 -4.4 0 121 0 1 1
6.6 -4 0 114 0 1 1
6.6 -3.6 0 106 0 1 1
6.6 -3.2 0 119 0 1 1
6.6 -2.8 0 92 0 1 1
6.6 -2.4 0 124 0 1 1
6.6 -2 0 155 0 1 1
6.6 -1.2 0 154 0 1 1
6.6 -0.4 0 136 0 1 1
6.6 0.3 0 101 0 1 1
6.6 0.7 -0.7 95 0 1 4
6.6 3.1 -0.7 87 0 1 4
6.6 3.5 0 165 0 1 1
6.6 4.3 0 172 0 1 1
6.6 5 0 131 0 1 1
6.6 5.2 0.1 50 0 1 2
6.6 5.2 0.2 98 0 1 2
6.6 5.3 0 50 0 1 2
6.6 5.3 0.1 53 0 1 2
6.6 5.3 0.2 60 0 1 2
6.6 5.4 0.3 143 0 1 2
6.6 5.5 0.3 137 0 1 2
6.6 5.6 0.1 60 0 1 2
6.6 5.6 0.2 59 0 1 2
6.6 5.6 0.3 115 0 1 2
6.6 5.7 0 54 0 1 2
6.6 5.7 0.2 59 0 1 2
6.6 5.7 0.3 84 0 1 2
6.6 5.8 0 77 0 1 2
6.6 5.8 0.1 60 0 1 2
6.6 5.8 0.2 83 0 1 2
6.6 5.9 0 56 0 1 2
6.6 5.9 0.1 58 0 1 2
6.6 6.6 0 150 0 1 1
6.7 5.2 0 54 0 1 2
6.7 5.2 0.1 44 0 1 2
6.7 5.2 0.2 50 0 1 2
6.7 5.4 0.3 151 0 1 2
6.7 5.5 0.3 146 0 1 2
6.7 5.6 0.3 171 0 1 2
6.7 5.9 0 61 0 1 2
6.7 5.9 0.1 148 0 1 2
6.7 6 0 112 0 1 2
6.8 5.1 0.1 56 0 1 2
6.8 5.1 0.2 54 0 1 2
6.8 5.2 0.1 55 0 1 2
6.8 5.2 0.2 96 0 1 2
6.8 5.4 0.3 148 0 1 2
6.8 5.6 0.3 161 0 1 2
6.8 5.7 0.3 145 0 1 2
6.8 5.9 0.2 83 0 1 2
6.9 5.1 0.1 56 0 1 2
6.9 5.1 0.2 85 0 1 2
6.9 5.3 0.3 155 0 1 2
6.9 5.5 0.3 163 0 1 2
6.9 6.1 0.1 145 0 1 2
7 -5.9 0 131 0 1 1
7 -2 0 144 0 1 1
7 0.3 0 107 0 1 1
7 0.7 -0.7 79 0 1 4
7 1.9 -1.3 131 0 1 4
7 2.3 -1.3 136 0 1 4
7 2.7 -1.3 112 0 1 4
7 3.1 -0.7 96 0 1 4
7 3.5 0 139 0 1 1
7 5.1 0 47 0 1 2
7 5.1 0.1 116 0 1 2
7 5.7 0.3 146 0 1 2
7 6.1 0.1 130 0 1 2
7 6.1 0.2 152 0 1 2
7.1 5.2 0 130 0 1 2
7.1 5.8 0.2 147 0 1 2
7.4 -7.5 0 159 0 1 1
7.4 -6.7 0 142 0 1 1
7.4 -5.9 0 154 0 1 1
7.4 -2 0 134 0 1 1
7.4 -1.2 0 111 0 1 1
7.4 -0.4 0 133 0 1 1
7.4 0.3 0 135 0 1 1
7.4 0.7 -0.7 89 0 1 4
7.4 1.5 -1.3 121 0 1 4
7.4 1.9 -1.3 146 0 1 4
7.4 2.3 -1.3 139 0 1 4
7.4 2.7 -1.3 91 0 1 4
7.4 3.1 -0.7 57 0 1 4
7.4 3.5 0 159 0 1 1
7.4 4.3 0 173 0 1 1
7.4 5 0 121 0 1 1
7.4 6.6 0 152 0 1 1
7.4 7.4 0 169 0 1 1
7.8 -5.9 0 111 0 1 1
7.8 -2 0 109 0 1 1
7.8 0.3 0 129 0 1 1
7.8 0.7 -0.7 100 0 1 4
7.8 1.1 -1.3 108 0 1 4
7.8 1.5 -1.3 124 0 1 4
7.8 1.9 -1.3 123 0 1 4
7.8 2.3 -1.3 142 0 1 4
7.8 2.7 -1.3 122 0 1 4
7.8 3.1 -0.7 75 0 1 4
7.8 3.5 0 132 0 1 1
8.2 -8.3 0 159 0 1 1
8.2 -7.5 0 161 0 1 1
8.2 -6.7 0 136 0 1 1
8.2 -5.9 0 94 0 1 1
8.2 -2 0 169 0 1 1
8.2 -1.2 0 172 0 1 1
8.2 -0.4 0 163 0 1 1
8.2 0.3 0 167 0 1 1
8.2 0.7 -0.7 94 0 1 4
8.2 1.1 -1.3 87 0 1 4
8.2 1.5 -1.3 83 0 1 4
8.2 1.9 -1.3 89 0 1 4
8.2 2.3 -1.3 85 0 1 4
8.2 2.7 -1.3 87 0 1 4
8.2 3.1 -0.7 84 0 1 4
8.2 3.5 0 127 0 1 1
8.2 4.3 0 162 0 1 1
8.2 5 0 142 0 1 1
8.2 5.8 0 159 0 1 1
8.2 7.4 0 166 0 1 1
8.2 8.2 0 151 0 1 1
8.6 -5.9 0 131 0 1 1
8.6 -2 0 134 0 1 1
8.6 0.3 0 144 0 1 1
8.6 0.7 -0.4 77 0 1 4
8.6 1.1 -0.7 47 0 1 4
8.6 1.5 -0.7 50 0 1 4
8.6 1.9 -0.7 64 0 1 4
8.6 2.3 -0.7 65 0 1 4
8.6 2.7 -0.7 57 0 1 4
8.6 3.1 -0.4 93 0 1 4
8.6 3.5 0 165 0 1 1
9 -9.1 0 157 0 1 1
9 -8.3 0 157 0 1 1
9 -7.5 0 154 0 1 1
9 -6.7 0 163 0 1 1
9 -5.9 0 126 0 1 1
9 -5.6 -0.7 112 0 1 4
9 -2 0 143 0 1 1
9 -1.2 0 168 0 1 1
9 -0.4 0 164 0 1 1
9 0.3 0 155 0 1 1
9 0.7 0 147 0 1 1
9 1.1 0 123 0 1 1
9 1.5 0 124 0 1 1
9 1.9 0 129 0 1 1
9 2.3 0 114 0 1 1
9 2.7 0 140 0 1 1
9 3.1 0 133 0 1 1
9 3.5 0 156 0 1 1
9 4.3 0 175 0 1 1
9 5 0 166 0 1 1
9 5.8 0 165 0 1 1
9 6.6 0 176 0 1 1
9 7.4 0 173 0 1 1
9 8.2 0 153 0 1 1
9 9 0 155 0 1 1
9.4 -5.9 0 113 0 1 1
9.4 -5.6 -0.7 108 0 1 4
9.4 -2 0 110 0 1 1
9.8 -9.9 0 167 0 1 1
9.8 -9.1 0 114 0 1 1
9.8 -8.3 0 163 0 1 1
9.8 -7.5 0 139 0 1 1
9.8 -6.7 0 157 0 1 1
9.8 -5.9 0 156 0 1 1
9.8 -5.6 -0.7 96 0 1 4
9.8 -2 0 116 0 1 1
9.8 -1.2 0 128 0 1 1
9.8 -0.4 0 156 0 1 1
9.8 0.3 0 167 0 1 1
9.8 1.1 0 166 0 1 1
9.8 1.9 0 176 0 1 1
9.8 2.7 0 179 0 1 1
9.8 3.5 0 170 0 1 1
9.8 4.3 0 170 0 1 1
9.8 5 0 139 0 1 1
9.8 5.8 0 163 0 1 1
9.8 6.6 0 156 0 1 1
9.8 7.4 0 162 0 1 1
9.8 8.2 0 160 0 1 1
9.8 9 0 164 0 1 1
9.8 9.8 0 162 0 1 1
10.1 -5.9 0 152 0 1 1
10.1 -5.5 -0.4 93 0 1 4
10.1 -5.2 -0.7 77 0 1 4
10.1 -4.8 -0.7 63 0 1 4
10.1 -4.4 -0.7 63 0 1 4
10.1 -4 -0.7 64 0 1 4
10.1 -3.6 -0.7 52 0 1 4
10.1 -3.2 -0.7 70 0 1 4
10.1 -2.8 -0.7 69 0 1 4
10.1 -2.4 -0.4 82 0 1 4
10.1 -2 0 124 0 1 1
10.2 -1.5 0 50 0 1 2
10.2 -1.4 0 59 0 1 2
10.2 -1.4 0.1 57 0 1 2
10.2 -1.4 0.2 52 0 1 2
10.2 -1.3 0 117 0 1 2
10.2 -1.3 0.1 56 0 1 2
10.2 -1.3 0.2 54 0 1 2
10.2 -1.2 -0.1 153 0 1 2
10.2 -1.2 0.2 71 0 1 2
10.2 -1.1 0 55 0 1 2
10.2 -1.1 0.1 82 0 1 2
10.2 -1 0 55 0 1 2
10.3 -1.7 0 62 0 1 2
10.3 -1.7 0.2 61 0 1 2
10.3 -1.6 0 61 0 1 2
10.3 -1.6 0.2 61 0 1 2
10.3 -1.6 0.3 62 0 1 2
10.3 -1.6 0.4 116 0 1 2
10.3 -1.5 0.3 58 0 1 2
10.3 -1.5 0.4 118 0 1 2
10.3 -1.4 0 61 0 1 2
10.3 -1.4 0.3 101 0 1 2
10.3 -1.2 0.2 114 0 1 2
10.3 -1.2 0.3 116 0 1 2
10.3 -1 -0.1 145 0 1 2
10.3 -1 0.1 100 0 1 2
10.3 -0.9 0 60 0 1 2
10.3 -0.9 0.1 84 0 1 2
10.3 -0.9 0.2 105 0 1 2
10.4 -1.8 -0.1 150 0 1 2
10.4 -1.8 0.1 64 0 1 2
10.4 -1.8 0.2 62 0 1 2
10.4 -1.8 0.3 63 0 1 2
10.4 -1.7 0 115 0 1 2
10.4 -1.7 0.3 104 0 1 2
10.4 -1.2 0.3 133 0 1 2
10.4 -0.9 0 143 0 1 2
10.4 -0.9 0.1 58 0 1 2
10.4 -0.9 0.2 90 0 1 2
10.5 -10.6 0 146 0 1 1
10.5 -9.9 0 159 0 1 1
10.5 -9.1 0 158 0 1 1
10.5 -8.3 0 164 0 1 1
10.5 -7.5 0 128 0 1 1
10.5 -6.7 0 156 0 1 1
10.5 -5.9 0 153 0 1 1
10.5 -5.5 0 151 0 1 1
10.5 -5.1 0 152 0 1 1
10.5 -4.8 0 137 0 1 1
10.5 -4.4 0 140 0 1 1
10.5 -4 0 112 0 1 1
10.5 -3.6 0 155 0 1 1
10.5 -3.2 0 160 0 1 1
10.5 -2.8 0 153 0 1 1
10.5 -2.4 0 144 0 1 1
10.5 -2 0 155 0 1 1
10.5 -1.9 0.1 102 0 1 2
10.5 -1.9 0.2 151 0 1 2
10.5 -1.8 0 80 0 1 2
10.5 -1.8 0.3 146 0 1 2
10.5 -1.5 0.4 163 0 1 2
10.5 -1.3 0.3 170 0 1 2
10.5 -1 0.3 165 0 1 2
10.5 -0.9 0 139 0 1 2
10.5 -0.9 0.2 139 0 1 2
10.5 -0.8 0.1 102 0 1 2
10.5 -0.4 0 141 0 1 1
10.5 0.3 0 176 0 1 1
10.5 1.1 0 159 0 1 1
10.5 1.9 0 157 0 1 1
10.5 2.7 0 167 0 1 1
10.5 3.5 0 178 0 1 1
10.5 4.3 0 162 0 1 1
10.5 5 0 141 0 1 1
10.5 5.8 0 141 0 1 1
10.5 6.6 0 157 0 1 1
10.5 7.4 0 165 0 1 1
10.5 8.2 0 171 0 1 1
10.5 9 0 160 0 1 1
10.5 9.8 0 161 0 1 1
10.5 10.5 0 163 0 1 1
10.6 -1.8 0.3 77 0 1 2
10.6 -1.6 0.3 134 0 1 2
10.6 -1.4 0.4 159 0 1 2
10.6 -1.3 0.3 169 0 1 2
10.6 -1.2 0.3 167 0 1 2
10.6 -1.1 0.3 170 0 1 2
10.6 -1 0.3 161 0 1 2
10.6 -0.9 0.2 140 0 1 2
10.6 -0.8 0.2 125 0 1 2
10.7 -1.8 0.3 162 0 1 2
10.7 -1.6 0.3 149 0 1 2
10.7 0.2 0 55 0 1 3
10.8 0.2 0.2 43 0 1 3
10.8 0.2 0.4 50 0 1 3
10.8 0.3 0.3 62 0 1 3
10.9 0.1 0.6 52 0 1 3
10.9 0.2 0.7 45 0 1 3
10.9 0.3 0.5 57 0 1 3
11 0.2 0.9 60 0 1 3
11 0.3 0.8 46 0 1 3
11.1 0.3 0.9 48 0 1 3
11.1 0.3 1.1 54 0 1 3
11.2 -0.1 0 56 0 1 3
11.2 0.4 1.2 64 0 1 3
11.2 0.4 1.4 61 0 1 3
11.3 -11.4 0 161 0 1 1
11.3 -10.6 0 148 0 1 1
11.3 -9.9 0 140 0 1 1
11.3 -9.1 0 162 0 1 1
11.3 -8.3 0 159 0 1 1
11.3 -7.5 0 152 0 1 1
11.3 -6.7 0 154 0 1 1
11.3 -5.9 0 154 0 1 1
11.3 -5.1 0 164 0 1 1
11.3 -4.4 0 160 0 1 1
11.3 -3.6 0 173 0 1 1
11.3 -2.8 0 156 0 1 1
11.3 -2 0 155 0 1 1
11.3 -0.4 0 139 0 1 1
11.3 -0.2 0.2 56 0 1 3
11.3 -0.2 0.4 58 0 1 3
11.3 -0.1 0.6 54 0 1 3
11.3 1.4 0.3 51 0 1 3
11.3 1.9 0 114 0 1 1
11.3 2.7 0 155 0 1 1
11.3 3.5 0 165 0 1 1
11.3 4.3 0 167 0 1 1
11.3 5 0 167 0 1 1
11.3 5.8 0 144 0 1 1
11.3 6.6 0 168 0 1 1
11.3 7.4 0 158 0 1 1
11.3 8.2 0 147 0 1 1
11.3 9 0 151 0 1 1
11.3 9.8 0 150 0 1 1
11.3 10.5 0 143 0 1 1
11.3 11.3 0 163 0 1 1
11.4 -0.1 0.9 63 0 1 3
11.4 0.4 1.7 136 0 1 3
11.4 0.5 1.7 115 0 1 3
11.4 0.6 1.8 91 0 1 3
11.5 0 1.2 57 0 1 3
11.5 0.6 1.8 146 0 1 3
11.5 1.4 0.8 59 0 1 3
11.6 0.1 1.4 48 0 1 3
11.6 0.7 1.8 172 0 1 3
11.6 0.9 1.8 57 0 1 3
11.6 1 1.9 52 0 1 3
11.7 -0.5 0 56 0 1 3
11.7 -0.5 0.4 58 0 1 3
11.7 -0.4 0.6 56 0 1 3
11.7 0.2 1.6 116 0 1 3
11.7 0.2 1.7 153 0 1 3
11.7 0.9 1.9 177 0 1 3
11.7 1 1.9 137 0 1 3
11.7 1.5 1.2 42 0 1 3
11.8 -0.5 0.2 57 0 1 3
11.8 -0.3 0.9 53 0 1 3
11.8 0.3 1.7 147 0 1 3
11.8 1 2 159 0 1 3
11.8 1.1 1.9 185 0 1 3
11.8 1.3 1.9 47 0 1 3
11.8 2.4 0.3 52 0 1 3
11.9 -7.5 0.1 52 0 1 3
11.9 -7.4 0 151 0 1 3
11.9 -7.3 0.3 57 0 1 3
11.9 -0.3 1.2 62 0 1 3
11.9 1.1 2 163 0 1 3
11.9 1.2 2 181 0 1 3
11.9 1.4 2 106 0 1 3
11.9 1.9 1.3 48 0 1 3
12 -8 0 144 0 1 3
12 -8 0.1 50 0 1 3
12 -7.4 0.3 53 0 1 3
12 -7.2 0.6 60 0 1 3
12 -0.2 1.4 52 0 1 3
12 -0.1 1.6 137 0 1 3
12 1.2 2 171 0 1 3
12 1.4 2 190 0 1 3
12 1.5 2 187 0 1 3
12 1.7 2 56 0 1 3
12 2.5 0.8 54 0 1 3
12.1 -12.2 0 134 0 1 1
12.1 -11.4 0 139 0 1 1
12.1 -10.6 0 157 0 1 1
12.1 -9.9 0 159 0 1 1
12.1 -9.1 0 160 0 1 1
12.1 -8.3 0 161 0 1 1
12.1 -8.1 0.2 62 0 1 3
12.1 -7.5 0 158 0 1 1
12.1 -7.4 0.6 62 0 1 3
12.1 -7.3 0.8 62 0 1 3
12.1 -6.7 0 169 0 1 1
12.1 -5.9 0 155 0 1 1
12.1 -5.1 0 157 0 1 1
12.1 -4.4 0 166 0 1 1
12.1 -3.6 0 158 0 1 1
12.1 -2.8 0 152 0 1 1
12.1 -0.7 0.7 59 0 1 3
12.1 0 1.6 150 0 1 3
12.1 1.4 2.1 185 0 1 3
12.1 1.6 2.1 188 0 1 3
12.1 1.8 2.1 179 0 1 3
12.1 2.3 1.5 38 0 1 3
12.1 3.5 0 138 0 1 1
12.1 4.3 0 170 0 1 1
12.1 5 0 167 0 1 1
12.1 5.8 0 177 0 1 1
12.1 6.6 0 155 0 1 1
12.1 7.4 0 164 0 1 1
12.1 8.2 0 160 0 1 1
12.1 9 0 147 0 1 1
12.1 9.8 0 157 0 1 1
12.1 10.5 0 161 0 1 1
12.1 11.3 0 138 0 1 1
12.1 12.1 0 162 0 1 1
12.2 -8.6 0.2 66 0 1 3
12.2 -8.5 0 128 0 1 3
12.2 -7.3 1 83 0 1 3
12.2 -6.7 0 118 0 1 3
12.2 -6.7 0.2 56 0 1 3
12.2 -6.7 0.5 53 0 1 3
12.2 -0.8 0.2 48 0 1 3
12.2 -0.7 0.5 60 0 1 3
12.2 -0.6 1 36 0 1 3
12.2 1.3 2.1 180 0 1 3
12.2 1.5 2.1 187 0 1 3
12.2 1.7 2.1 190 0 1 3
12.2 1.9 2.1 189 0 1 3
12.2 2.9 0.9 44 0 1 3
12.3 -8.7 0.3 62 0 1 3
12.3 -8 0.7 52 0 1 3
12.3 -6.8 0.9 61 0 1 3
12.3 -0.9 0 48 0 1 3
12.3 -0.5 1.1 61 0 1 3
12.3 -0.5 1.3 61 0 1 3
12.3 0.3 1.7 149 0 1 3
12.3 1.3 2.1 184 0 1 3
12.3 1.6 2.2 176 0 1 3
12.3 1.8 2.2 155 0 1 3
12.3 2 2.2 125 0 1 3
12.3 2.1 2.2 76 0 1 3
12.3 3.5 0.3 51 0 1 3
12.4 -8.9 0 136 0 1 3
12.4 -8.6 0.7 57 0 1 3
12.4 -7.9 1.1 86 0 1 3
12.4 -6.1 0.5 66 0 1 3
12.4 -6 0.2 93 0 1 3
12.4 -0.4 1.5 135 0 1 3
12.4 -0.3 1.5 152 0 1 3
12.4 0.4 1.8 146 0 1 3
12.4 1.4 2.2 96 0 1 3
12.4 2.7 1.6 51 0 1 3
12.4 3.3 1 50 0 1 3
12.5 -9.1 0.2 55 0 1 3
12.5 -9 0.1 59 0 1 3
12.5 -6.8 1.1 137 0 1 3
12.5 -5.9 0 151 0 1 3
12.5 -1 0.7 62 0 1 3
12.5 0.6 1.9 152 0 1 3
12.5 2.6 2.1 58 0 1 3
12.5 3.2 1.6 59 0 1 3
12.5 3.9 0.4 52 0 1 3
12.6 -8.5 1.1 82 0 1 3
12.6 -6.2 0.8 119 0 1 3
12.6 -6.1 0.6 130 0 1 3
12.6 -1.1 0.3 58 0 1 3
12.6 -1 0.5 108 0 1 3
12.6 -0.9 0.9 54 0 1 3
12.6 -0.8 1.1 68 0 1 3
12.6 0 1.7 157 0 1 3
12.6 0.7 1.9 154 0 1 3
12.6 3.8 1 53 0 1 3
12.7 -9.4 0.1 54 0 1 3
12.7 -9.3 0 137 0 1 3
12.7 -8.9 0.7 60 0 1 3
12.7 -7.5 1.2 132 0 1 3
12.7 -6.3 1.2 142 0 1 3
12.7 -1.2 0 62 0 1 3
12.7 -1.2 0.1 59 0 1 3
12.7 -1.1 0.3 52 0 1 3
12.7 -1.1 0.4 122 0 1 3
12.7 -1 0.7 68 0 1 3
12.7 -0.9 0.9 50 0 1 3
12.7 -0.7 1.3 67 0 1 3
12.7 -0.7 1.4 79 0 1 3
12.7 1 2 152 0 1 3
12.7 3 2.1 65 0 1 3
12.7 3.6 1.5 52 0 1 3
12.7 4.3 0.4 62 0 1 3
12.7 4.5 0 120 0 1 3
12.8 -9.6 0.3 60 0 1 3
12.8 -9.5 0.1 57 0 1 3
12.8 -8.8 1.1 68 0 1 3
12.8 -8.7 1.2 100 0 1 3
12.8 -6.4 1.2 146 0 1 3
12.8 -1.2 0.1 63 0 1 3
12.8 -1.2 0.2 155 0 1 3
12.8 -1 0.6 94 0 1 3
12.8 -0.9 0.7 71 0 1 3
12.8 0.8 2 160 0 1 3
12.8 1.1 2.1 161 0 1 3
12.8 3.4 2.1 63 0 1 3
12.8 4.2 1 56 0 1 3
12.8 4.3 0.6 68 0 1 3
12.8 4.5 0.2 147 0 1 3
12.9 -13 0 161 0 1 1
12.9 -12.2 0 166 0 1 1
12.9 -11.4 0 166 0 1 1
12.9 -10.6 0 157 0 1 1
12.9 -9.9 0 155 0 1 1
12.9 -9.7 0.4 126 0 1 3
12.9 -9.6 0 59 0 1 3
12.9 -9.5 0.5 62 0 1 3
12.9 -9.3 0.6 56 0 1 3
12.9 -7.6 1.2 146 0 1 3
12.9 -5.9 0 168 0 1 1
12.9 -5.1 0 166 0 1 1
12.9 -4.4 0 171 0 1 1
12.9 -3.6 0 153 0 1 1
12.9 -2.8 0 156 0 1 1
12.9 -1.2 0 122 0 1 3
12.9 -1.1 0.4 116 0 1 3
12.9 -0.3 1.6 156 0 1 3
12.9 1.2 2.1 153 0 1 3
12.9 1.8 2.2 190 0 1 3
12.9 4 1.5 47 0 1 3
12.9 4.2 1.2 57 0 1 3
12.9 4.3 0.8 58 0 1 3
12.9 4.5 0.4 149 0 1 3
12.9 4.5 0.6 152 0 1 3
12.9 5 0 164 0 1 1
12.9 5.8 0 166 0 1 1
12.9 6.6 0 167 0 1 1
12.9 7.4 0 167 0 1 1
12.9 8.2 0 162 0 1 1
12.9 9 0 163 0 1 1
12.9 9.8 0 164 0 1 1
12.9 10.5 0 149 0 1 1
12.9 11.3 0 155 0 1 1
12.9 12.1 0 147 0 1 1
12.9 12.9 0 146 0 1 1
13 -9.7 0.1 50 0 1 3
13 -9.6 0.6 106 0 1 3
13 -9.5 0.8 51 0 1 3
13 -9.3 1 57 0 1 3
13 -9.1 1.2 69 0 1 3
13 -9 1.2 74 0 1 3
13 -9 1.3 101 0 1 3
13 -6.5 1.3 153 0 1 3
13 1.3 2.2 96 0 1 3
13 1.5 2.2 166 0 1 3
13 1.6 2.2 188 0 1 3
13 3.8 2.1 67 0 1 3
13 4 1.7 68 0 1 3
13 4.2 1.3 70 0 1 3
13 4.3 1 63 0 1 3
13.1 -9.8 0.2 92 0 1 3
13.1 -7.8 1.3 147 0 1 3
13.1 0 1.7 149 0 1 3
13.2 -9.9 0.1 109 0 1 3
13.2 -9.8 0 96 0 1 3
13.2 -6.6 1.4 158 0 1 3
13.2 -0.6 1.5 147 0 1 3
13.2 0.2 1.8 154 0 1 3
13.3 -8.7 1.4 112 0 1 3
13.3 -7.5 1.4 148 0 1 3
13.3 -6.7 1.4 165 0 1 3
13.3 -6.5 1.3 129 0 1 3
13.3 -6.5 1.4 123 0 1 3
13.3 0.3 1.8 153 0 1 3
13.3 2.8 2.1 64 0 1 3
13.4 -6.8 1.5 159 0 1 3
13.4 -0.3 1.6 155 0 1 3
13.5 -8.5 1.5 141 0 1 3
13.5 -7.6 1.5 150 0 1 3
13.5 -6.6 1.4 163 0 1 3
13.5 0.4 1.9 152 0 1 3
13.5 1 2.1 154 0 1 3
13.5 3.8 2.1 52 0 1 3
13.6 0.7 2 151 0 1 3
13.6 1.1 2.1 150 0 1 3
13.7 -13.8 0 157 0 1 1
13.7 -13 0 154 0 1 1
13.7 -12.2 0 158 0 1 1
13.7 -11.4 0 128 0 1 1
13.7 -10.6 0 128 0 1 1
13.7 -8.4 1.5 90 0 1 3
13.7 -7.5 1.5 144 0 1 3
13.7 -6.7 1.5 159 0 1 3
13.7 -5.9 0 142 0 1 1
13.7 -5.1 0 159 0 1 1
13.7 -4.4 0 158 0 1 1
13.7 -3.6 0 158 0 1 1
13.7 -2.8 0 133 0 1 1
13.7 -2 0 160 0 1 1
13.7 -0.6 1.5 112 0 1 3
13.7 0.5 1.9 157 0 1 3
13.7 1.1 2.2 108 0 1 3
13.7 5 0 165 0 1 1
13.7 5.8 0 171 0 1 1
13.7 6.6 0 167 0 1 1
13.7 7.4 0 162 0 1 1
13.7 8.2 0 145 0 1 1
13.7 9 0 169 0 1 1
13.7 9.8 0 153 0 1 1
13.7 10.5 0 159 0 1 1
13.7 11.3 0 151 0 1 1
13.7 12.1 0 160 0 1 1
13.7 12.9 0 163 0 1 1
13.7 13.7 0 153 0 1 1
13.9 -8.3 1.5 100 0 1 3
13.9 -7.5 1.5 149 0 1 3
13.9 -6.6 1.5 158 0 1 3
13.9 -6.2 0 132 0 1 3
13.9 -0.3 1.7 151 0 1 3
14 -6.4 0.6 125 0 1 3
14 -0.1 1.7 154 0 1 3
14.2 -0.6 1.6 142 0 1 3
14.2 0 1.8 156 0 1 3
14.2 0.9 2.1 149 0 1 3
14.3 1 2.2 120 0 1 3
14.4 -7.6 1.4 155 0 1 3
14.4 -6.7 1.5 136 0 1 3
14.4 0.1 1.8 156 0 1 3
14.4 0.7 2 153 0 1 3
14.5 -14.6 0 164 0 1 1
14.5 -13.8 0 153 0 1 1
14.5 -13 0 159 0 1 1
14.5 -12.2 0 149 0 1 1
14.5 -11.4 0 151 0 1 1
14.5 -8.1 1.4 137 0 1 3
14.5 -5.9 0 158 0 1 1
14.5 -5.1 0 156 0 1 1
14.5 -4.4 0 153 0 1 1
14.5 -3.6 0 163 0 1 1
14.5 -2.8 0 162 0 1 1
14.5 -2 0 160 0 1 1
14.5 0.5 2 155 0 1 3
14.5 5.8 0 170 0 1 1
14.5 6.6 0 175 0 1 1
14.5 7.4 0 161 0 1 1
14.5 8.2 0 161 0 1 1
14.5 9 0 165 0 1 1
14.5 9.8 0 164 0 1 1
14.5 10.5 0 166 0 1 1
14.5 11.3 0 165 0 1 1
14.5 12.1 0 159 0 1 1
14.5 12.9 0 155 0 1 1
14.5 13.7 0 155 0 1 1
14.5 14.5 0 151 0 1 1
14.6 -6.5 0.7 131 0 1 3
14.6 0.2 1.9 152 0 1 3
14.7 -0.6 1.6 134 0 1 3
14.9 -0.4 1.7 129 0 1 3
14.9 1.2 2.2 154 0 1 3
15 -6.8 1.4 74 0 1 3
15 -0.4 1.6 148 0 1 3
15 0.8 2.2 140 0 1 3
15 1 2.2 147 0 1 3
15.1 -7.9 1.4 155 0 1 3
15.1 -7.4 1.4 160 0 1 3
15.1 -0.3 1.7 136 0 1 3
15.1 0.6 2.1 132 0 1 3
15.2 -15.3 0 152 0 1 1
15.2 -14.6 0 144 0 1 1
15.2 -13.8 0 116 0 1 1
15.2 -13 0 134 0 1 1
15.2 -12.2 0 142 0 1 1
15.2 -6.8 1 108 0 1 3
15.2 -6.6 0.7 80 0 1 3
15.2 -5.9 0 162 0 1 1
15.2 -5.1 0 158 0 1 1
15.2 -4.4 0 166 0 1 1
15.2 -3.6 0 166 0 1 1
15.2 -2.8 0 167 0 1 1
15.2 -2 0 161 0 1 1
15.2 5.8 0 168 0 1 1
15.2 6.6 0 165 0 1 1
15.2 7.4 0 168 0 1 1
15.2 8.2 0 163 0 1 1
15.2 9 0 161 0 1 1
15.2 9.8 0 158 0 1 1
15.2 10.5 0 168 0 1 1
15.2 11.3 0 164 0 1 1
15.2 12.1 0 163 0 1 1
15.2 12.9 0 168 0 1 1
15.2 13.7 0 153 0 1 1
15.2 14.5 0 156 0 1 1
15.2 15.2 0 154 0 1 1
15.3 -0.2 1.8 102 0 1 3
15.3 0.4 2 143 0 1 3
15.4 -6.7 0.5 125 0 1 3
15.4 -6.6 0.2 120 0 1 3
15.4 -6.5 0 157 0 1 3
15.4 -0.2 1.7 150 0 1 3
15.4 0.2 1.9 148 0 1 3
15.6 0 1.9 99 0 1 3
16 -16.1 0 155 0 1 1
16 -15.3 0 119 0 1 1
16 -14.6 0 139 0 1 1
16 -13.8 0 154 0 1 1
16 -13 0 154 0 1 1
16 -12.2 0 158 0 1 1
16 -6.7 0 158 0 1 1
16 -5.9 0 144 0 1 1
16 -5.1 0 157 0 1 1
16 -4.4 0 166 0 1 1
16 -3.6 0 167 0 1 1
16 -2.8 0 164 0 1 1
16 -2 0 170 0 1 1
16 5.8 0 161 0 1 1
16 6.6 0 166 0 1 1
16 7.4 0 165 0 1 1
16 8.2 0 169 0 1 1
16 9 0 163 0 1 1
16 9.8 0 163 0 1 1
16 10.5 0 155 0 1 1
16 11.3 0 163 0 1 1
16 12.1 0 153 0 1 1
16 12.9 0 159 0 1 1
16 13.7 0 156 0 1 1
16 14.5 0 167 0 1 1
16 15.2 0 160 0 1 1
16 16 0 161 0 1 1
16.8 -16.9 0 149 0 1 1
16.8 -16.1 0 148 0 1 1
16.8 -15.3 0 144 0 1 1
16.8 -14.6 0 154 0 1 1
16.8 -13.8 0 147 0 1 1
16.8 -13 0 124 0 1 1
16.8 -6.7 0 161 0 1 1
16.8 -5.9 0 150 0 1 1
16.8 -5.1 0 159 0 1 1
16.8 -4.4 0 157 0 1 1
16.8 -3.6 0 167 0 1 1
16.8 -2.8 0 162 0 1 1
16.8 -2 0 155 0 1 1
16.8 6.6 0 170 0 1 1
16.8 7.4 0 165 0 1 1
16.8 8.2 0 163 0 1 1
16.8 9 0 167 0 1 1
16.8 9.8 0 162 0 1 1
16.8 10.5 0 149 0 1 1
16.8 11.3 0 171 0 1 1
16.8 12.1 0 155 0 1 1
16.8 12.9 0 164 0 1 1
16.8 13.7 0 160 0 1 1
16.8 14.5 0 159 0 1 1
16.8 15.2 0 159 0 1 1
16.8 16 0 161 0 1 1
16.8 16.8 0 162 0 1 1
17.6 -17.7 0 150 0 1 1
17.6 -16.9 0 141 0 1 1
17.6 -16.1 0 149 0 1 1
17.6 -15.3 0 135 0 1 1
17.6 -14.6 0 144 0 1 1
17.6 -13.8 0 147 0 1 1
17.6 -6.7 0 119 0 1 1
17.6 -5.9 0 155 0 1 1
17.6 -5.1 0 152 0 1 1
17.6 -4.4 0 158 0 1 1
17.6 -3.6 0 160 0 1 1
17.6 -2.8 0 159 0 1 1
17.6 -2 0 168 0 1 1
17.6 6.6 0 168 0 1 1
17.6 7.4 0 163 0 1 1
17.6 8.2 0 162 0 1 1
17.6 9 0 168 0 1 1
17.6 9.8 0 163 0 1 1
17.6 10.5 0 164 0 1 1
17.6 11.3 0 157 0 1 1
17.6 12.1 0 162 0 1 1
17.6 12.9 0 164 0 1 1
17.6 13.7 0 158 0 1 1
17.6 14.5 0 154 0 1 1
17.6 15.2 0 155 0 1 1
17.6 16 0 155 0 1 1
17.6 16.8 0 137 0 1 1
17.6 17.6 0 157 0 1 1
18.4 -18.5 0 153 0 1 1
18.4 -17.7 0 151 0 1 1
18.4 -16.9 0 154 0 1 1
18.4 -16.1 0 146 0 1 1
18.4 -15.3 0 151 0 1 1
18.4 -14.6 0 147 0 1 1
18.4 -13.8 0 116 0 1 1
18.4 -7.5 0 155 0 1 1
18.4 -6.7 0 162 0 1 1
18.4 -5.9 0 142 0 1 1
18.4 -5.1 0 153 0 1 1
18.4 -4.4 0 164 0 1 1
18.4 -3.6 0 151 0 1 1
18.4 -2.8 0 164 0 1 1
18.4 -2 0 157 0 1 1
18.4 6.6 0 168 0 1 1
18.4 7.4 0 158 0 1 1
18.4 8.2 0 163 0 1 1
18.4 9 0 161 0 1 1
18.4 9.8 0 168 0 1 1
18.4 10.5 0 161 0 1 1
18.4 11.3 0 165 0 1 1
18.4 12.1 0 165 0 1 1
18.4 12.9 0 161 0 1 1
18.4 13.7 0 157 0 1 1
18.4 14.5 0 154 0 1 1
18.4 15.2 0 160 0 1 1
18.4 16 0 153 0 1 1
18.4 16.8 0 141 0 1 1
18.4 17.6 0 148 0 1 1
18.4 18.4 0 157 0 1 1
19.2 -19.3 0 158 0 1 1
19.2 -18.5 0 151 0 1 1
19.2 -17.7 0 147 0 1 1
19.2 -16.9 0 129 0 1 1
19.2 -16.1 0 148 0 1 1
19.2 -15.3 0 144 0 1 1
19.2 -14.6 0 140 0 1 1
19.2 -7.5 0 133 0 1 1
19.2 -6.7 0 157 0 1 1
19.2 -5.9 0 134 0 1 1
19.2 -5.1 0 155 0 1 1
19.2 -4.4 0 161 0 1 1
19.2 -3.6 0 156 0 1 1
19.2 -2.8 0 154 0 1 1
19.2 -2 0 166 0 1 1
19.2 7.4 0 173 0 1 1
19.2 8.2 0 168 0 1 1
19.2 9 0 166 0 1 1
19.2 9.8 0 167 0 1 1
19.2 10.5 0 164 0 1 1
19.2 11.3 0 160 0 1 1
19.2 12.1 0 162 0 1 1
19.2 12.9 0 163 0 1 1
19.2 13.7 0 161 0 1 1
19.2 14.5 0 162 0 1 1
19.2 15.2 0 155 0 1 1
19.2 16 0 157 0 1 1
19.2 16.8 0 157 0 1 1
19.2 17.6 0 149 0 1 1
19.2 18.4 0 148 0 1 1
19.2 19.2 0 158 0 1 1
20 -19.3 0 98 0 1 1
20 -18.5 0 98 0 1 1
20 -17.7 0 96 0 1 1
20 -16.9 0 99 0 1 1
20 -16.1 0 101 0 1 1
20 -15.3 0 93 0 1 1
20 -8.3 0 95 0 1 1
20 -7.5 0 101 0 1 1
20 -6.7 0 103 0 1 1
20 -5.9 0 104 0 1 1
20 -5.1 0 100 0 1 1
20 -4.4 0 103 0 1 1
20 -3.6 0 102 0 1 1
20 -2.8 0 99 0 1 1
20 -2 0 104 0 1 1
20 7.4 0 110 0 1 1
20 8.2 0 110 0 1 1
20 9 0 107 0 1 1
20 9.8 0 110 0 1 1
20 10.5 0 107 0 1 1
20 11.3 0 109 0 1 1
20 12.1 0 104 0 1 1
20 12.9 0 105 0 1 1
20 13.7 0 103 0 1 1
20 14.5 0 103 0 1 1
20 15.2 0 104 0 1 1
20 16 0 102 0 1 1
20 16.8 0 103 0 1 1
20 17.6 0 104 0 1 1
20 18.4 0 99 0 1 1
20 19.2 0 103 0 1 1
20 20 0 97 0 1 1
