3.5 -3.6 0 161 0 1 1
3.5 -2.8 -0.1 169 0 1 4
3.5 -2.4 -0.1 138 0 1 4
3.5 -2 -0.1 139 0 1 4
3.5 -1.6 -0.1 132 0 1 4
3.5 -1.2 -0.1 158 0 1 4
3.5 -0.8 -0.1 152 0 1 4
3.5 -0.4 -0.1 144 0 1 4
3.5 0 -0.1 167 0 1 4
3.5 0.3 -0.1 130 0 1 4
3.5 0.7 -0.1 141 0 1 4
3.5 1.1 -0.1 145 0 1 4
3.5 1.5 -0.1 157 0 1 4
3.5 1.9 -0.1 163 0 1 4
3.5 2.3 -0.1 164 0 1 4
3.5 2.7 -0.1 162 0 1 4
3.5 3.1 -0.1 162 0 1 4
3.5 3.5 -0.1 156 0 1 4
3.9 -2.8 -0.2 147 0 1 4
3.9 -2.4 -0.2 125 0 1 4
3.9 -2 -0.3 125 0 1 4
3.9 -1.6 -0.3 129 0 1 4
3.9 -1.2 -0.3 139 0 1 4
3.9 -0.8 -0.3 130 0 1 4
3.9 -0.4 -0.3 143 0 1 4
3.9 0 -0.3 138 0 1 4
3.9 0.4 -0.3 145 0 1 4
3.9 0.7 -0.3 150 0 1 4
3.9 1.1 -0.3 156 0 1 4
3.9 1.5 -0.3 149 0 1 4
3.9 1.9 -0.3 152 0 1 4
3.9 2.3 -0.3 147 0 1 4
3.9 2.7 -0.3 157 0 1 4
3.9 3.1 -0.3 149 0 1 4
3.9 3.5 -0.3 159 0 1 4
3.9 3.9 -0.3 153 0 1 4
4.3 -4.4 0 164 0 1 1
4.3 -3.6 -0.1 136 0 1 4
4.3 -3.2 -0.2 140 0 1 4
4.3 -2.8 -0.3 122 0 1 4
4.3 -2.4 -0.3 138 0 1 4
4.3 -2 -0.4 133 0 1 4
4.3 -1.6 -0.5 116 0 1 4
4.3 -1.2 -0.5 127 0 1 4
4.3 -0.8 -0.5 140 0 1 4
4.3 -0.4 -0.5 140 0 1 4
4.3 0 -0.5 143 0 1 4
4.3 0.4 -0.5 141 0 1 4
4.3 0.8 -0.5 145 0 1 4
4.3 1.2 -0.5 155 0 1 4
4.3 1.5 -0.5 142 0 1 4
4.3 1.9 -0.5 145 0 1 4
4.3 2.3 -0.5 154 0 1 4
4.3 2.7 -0.5 147 0 1 4
4.3 3.1 -0.5 156 0 1 4
4.3 3.5 -0.5 159 0 1 4
4.3 3.9 -0.5 153 0 1 4
4.3 4.3 -0.4 143 0 1 4
4.7 -3.6 -0.2 121 0 1 4
4.7 -3.2 -0.3 133 0 1 4
4.7 -2.8 -0.4 121 0 1 4
4.7 -2.4 -0.6 140 0 1 4
4.7 3.9 -0.7 141 0 1 4
4.7 4.3 -0.7 146 0 1 4
4.7 4.7 -0.6 139 0 1 4
5 -5.1 0 149 0 1 1
5 -4.4 -0.1 170 0 1 4
5 -3.6 -0.3 155 0 1 4
5 -3.2 -0.4 129 0 1 4
5 -2.8 -0.6 132 0 1 4
5 -2.4 -0.8 130 0 1 4
5 4.3 -0.9 146 0 1 4
5 4.7 -0.8 130 0 1 4
5 5.1 -0.6 132 0 1 4
5.4 -3.6 -0.3 144 0 1 4
5.4 -3.2 -0.6 114 0 1 4
5.4 -2.8 -0.8 105 0 1 4
5.4 -2.4 -1 120 0 1 4
5.4 -2 -1.2 139 0 1 4
5.4 4.3 -1.2 123 0 1 4
5.4 4.7 -1 114 0 1 4
5.4 5.1 -0.8 126 0 1 4
5.4 5.5 -0.6 116 0 1 4
5.8 -5.9 0 134 0 1 1
5.8 -5.1 0 169 0 1 1
5.8 -4.4 -0.1 168 0 1 4
5.8 -3.6 -0.4 117 0 1 4
5.8 -3.2 -0.7 117 0 1 4
5.8 -2.7 -0.9 116 0 1 4
5.8 -2.3 -1.2 103 0 1 4
5.8 -1.9 -1.4 146 0 1 4
5.8 4.3 -1.4 125 0 1 4
5.8 4.7 -1.2 104 0 1 4
5.8 5.1 -0.9 123 0 1 4
5.8 5.5 -0.7 104 0 1 4
5.8 5.9 -0.4 140 0 1 4
6.2 -3.6 -0.5 129 0 1 4
6.2 -3.2 -0.7 114 0 1 4
6.2 -2.7 -1 92 0 1 4
6.2 -2.3 -1.2 85 0 1 4
6.2 -1.9 -1.5 124 0 1 4
6.2 -1.5 -1.6 106 0 1 4
6.2 4 -1.6 137 0 1 4
6.2 4.3 -1.5 124 0 1 4
6.2 4.7 -1.2 119 0 1 4
6.2 5.1 -1 131 0 1 4
6.2 5.5 -0.7 105 0 1 4
6.2 5.9 -0.5 144 0 1 4
6.6 -6.7 0 150 0 1 1
6.6 -5.9 0 147 0 1 1
6.6 -5.1 0 147 0 1 1
6.6 -4.4 -0.1 165 0 1 4
6.6 -3.6 -0.5 135 0 1 4
6.6 -3.1 -0.8 121 0 1 4
6.6 -2.7 -1.1 94 0 1 4
6.6 -2.3 -1.3 109 0 1 4
6.6 -1.9 -1.6 128 0 1 4
6.6 -1.5 -1.7 131 0 1 4
6.6 -1.1 -1.8 133 0 1 4
6.6 -0.7 -1.8 129 0 1 4
6.6 -0.4 -1.8 122 0 1 4
6.6 0 -1.8 120 0 1 4
6.6 0.4 -1.8 110 0 1 4
6.6 0.8 -1.8 132 0 1 4
6.6 1.2 -1.8 118 0 1 4
6.6 1.6 -1.8 119 0 1 4
6.6 2 -1.8 118 0 1 4
6.6 2.4 -1.8 130 0 1 4
6.6 2.8 -1.8 129 0 1 4
6.6 3.2 -1.8 135 0 1 4
6.6 3.6 -1.8 135 0 1 4
6.6 4 -1.7 137 0 1 4
6.6 4.3 -1.6 134 0 1 4
6.6 4.7 -1.3 121 0 1 4
6.6 5.1 -1.1 92 0 1 4
6.6 5.5 -0.8 130 0 1 4
6.6 5.9 -0.5 143 0 1 4
6.6 6.6 -0.1 155 0 1 4
6.9 -5.5 0.1 62 0 1 2
6.9 -5.5 0.2 79 0 1 2
6.9 -5.4 0 57 0 1 2
6.9 -5.4 0.1 69 0 1 2
6.9 -5.4 0.2 81 0 1 2
6.9 -5.3 0 93 0 1 2
6.9 -5.3 0.1 60 0 1 2
6.9 -5.3 0.2 120 0 1 2
6.9 -5.2 0 54 0 1 2
6.9 -5.2 0.1 45 0 1 2
6.9 -5.1 0 143 0 1 2
6.9 -5 0 84 0 1 2
7 -5.6 0 127 0 1 2
7 -5.6 0.1 121 0 1 2
7 -5.5 0 56 0 1 2
7 -5.5 0.1 133 0 1 2
7 -5.5 0.2 135 0 1 2
7 -5.4 0.2 135 0 1 2
7 -5.3 0.2 142 0 1 2
7 -3.6 -0.5 155 0 1 4
7 -3.1 -0.8 115 0 1 4
7 -2.7 -1.1 94 0 1 4
7 -2.3 -1.3 107 0 1 4
7 -1.9 -1.6 122 0 1 4
7 -1.5 -1.7 138 0 1 4
7 -1.1 -1.8 119 0 1 4
7 -0.7 -1.8 130 0 1 4
7 -0.4 -1.8 121 0 1 4
7 0 -1.8 126 0 1 4
7 0.4 -1.8 119 0 1 4
7 0.8 -1.8 137 0 1 4
7 1.2 -1.8 119 0 1 4
7 1.6 -1.8 131 0 1 4
7 2 -1.8 131 0 1 4
7 2.4 -1.8 129 0 1 4
7 2.8 -1.8 138 0 1 4
7 3.2 -1.8 140 0 1 4
7 3.6 -1.8 129 0 1 4
7 4 -1.7 128 0 1 4
7 4.3 -1.6 137 0 1 4
7 4.7 -1.3 105 0 1 4
7 5.1 -1.1 110 0 1 4
7 5.5 -0.8 106 0 1 4
7 5.9 -0.5 135 0 1 4
7.1 -5.6 0.1 57 0 1 2
7.1 -5.2 0.2 137 0 1 2
7.1 -5 0.1 127 0 1 2
7.2 -5.2 0.2 134 0 1 2
7.2 -4.9 0.1 142 0 1 2
7.2 -4.7 -0.1 157 0 1 2
7.3 -5.5 0.2 139 0 1 2
7.3 -5.3 0.3 145 0 1 2
7.3 -5.2 0.3 144 0 1 2
7.3 -5.1 0.3 134 0 1 2
7.3 -4.9 0.1 145 0 1 2
7.3 -4.7 -0.1 143 0 1 2
7.4 -7.5 0 159 0 1 1
7.4 -6.7 0 142 0 1 1
7.4 -5.9 0 164 0 1 1
7.4 -5.1 0.3 149 0 1 2
7.4 -4.9 0.1 134 0 1 2
7.4 -4.7 -0.1 167 0 1 2
7.4 -4.4 -0.1 154 0 1 4
7.4 -3.6 -0.5 122 0 1 4
7.4 -3.1 -0.8 119 0 1 4
7.4 -2.7 -1.1 120 0 1 4
7.4 -2.3 -1.3 106 0 1 4
7.4 -1.9 -1.6 123 0 1 4
7.4 -1.5 -1.7 130 0 1 4
7.4 -1.1 -1.8 139 0 1 4
7.4 -0.7 -1.8 134 0 1 4
7.4 -0.4 -1.8 119 0 1 4
7.4 0 -1.8 117 0 1 4
7.4 0.4 -1.8 123 0 1 4
7.4 0.8 -1.8 130 0 1 4
7.4 1.2 -1.8 118 0 1 4
7.4 1.6 -1.8 133 0 1 4
7.4 2 -1.8 134 0 1 4
7.4 2.4 -1.8 134 0 1 4
7.4 2.8 -1.8 133 0 1 4
7.4 3.2 -1.8 116 0 1 4
7.4 3.6 -1.8 130 0 1 4
7.4 4 -1.7 132 0 1 4
7.4 4.3 -1.6 130 0 1 4
7.4 4.7 -1.3 91 0 1 4
7.4 5.1 -1.1 83 0 1 4
7.4 5.5 -0.8 100 0 1 4
7.4 5.9 -0.5 110 0 1 4
7.4 6.6 -0.1 163 0 1 4
7.4 7.4 0 170 0 1 1
7.5 -5.4 0.3 140 0 1 2
7.5 -5.3 0.3 150 0 1 2
7.5 -5 0.3 152 0 1 2
7.5 -4.8 -0.1 164 0 1 2
7.5 -4.8 0.1 144 0 1 2
7.5 -4.7 -0.1 153 0 1 2
7.6 -5.4 0.3 147 0 1 2
7.6 -5.2 0.3 161 0 1 2
7.6 -5.1 0.3 161 0 1 2
7.6 -4.8 0 123 0 1 2
7.6 -4.8 0.1 152 0 1 2
7.7 -5.4 0.3 152 0 1 2
7.7 -5.3 0.3 158 0 1 2
7.7 -4.8 0.2 156 0 1 2
7.8 -5.3 0.3 154 0 1 2
7.8 -5.2 0.2 161 0 1 2
7.8 -5.2 0.3 150 0 1 2
7.8 -5.1 0.2 150 0 1 2
7.8 -5 0.2 152 0 1 2
7.8 -4.9 0.2 157 0 1 2
7.8 -3.6 -0.5 174 0 1 4
7.8 -3.1 -0.8 124 0 1 4
7.8 -2.7 -1.1 121 0 1 4
7.8 -2.3 -1.3 97 0 1 4
7.8 -1.9 -1.6 134 0 1 4
7.8 -1.5 -1.7 132 0 1 4
7.8 -1.1 -1.8 135 0 1 4
7.8 -0.7 -1.8 119 0 1 4
7.8 -0.4 -1.8 133 0 1 4
7.8 0 -1.8 129 0 1 4
7.8 0.4 -1.8 117 0 1 4
7.8 0.8 -1.8 126 0 1 4
7.8 1.2 -1.8 122 0 1 4
7.8 1.6 -1.8 115 0 1 4
7.8 2 -1.8 124 0 1 4
7.8 2.4 -1.8 121 0 1 4
7.8 2.8 -1.8 128 0 1 4
7.8 3.2 -1.8 128 0 1 4
7.8 3.6 -1.8 129 0 1 4
7.8 4 -1.7 129 0 1 4
7.8 4.3 -1.6 106 0 1 4
7.8 4.7 -1.3 124 0 1 4
7.8 5.1 -1.1 118 0 1 4
7.8 5.5 -0.8 106 0 1 4
7.8 5.9 -0.5 144 0 1 4
8.2 -8.3 0 159 0 1 1
8.2 -7.5 0 161 0 1 1
8.2 -6.7 0 136 0 1 1
8.2 -4.4 -0.1 127 0 1 4
8.2 -3.6 -0.5 142 0 1 4
8.2 -3.1 -0.8 120 0 1 4
8.2 -2.7 -1.1 106 0 1 4
8.2 -2.3 -1.3 113 0 1 4
8.2 -1.9 -1.6 123 0 1 4
8.2 -1.5 -1.7 132 0 1 4
8.2 -1.1 -1.8 133 0 1 4
8.2 -0.7 -1.8 126 0 1 4
8.2 -0.4 -1.8 125 0 1 4
8.2 0 -1.8 131 0 1 4
8.2 0.4 -1.8 121 0 1 4
8.2 0.8 -1.8 136 0 1 4
8.2 1.2 -1.8 138 0 1 4
8.2 1.6 -1.8 130 0 1 4
8.2 2 -1.8 129 0 1 4
8.2 2.4 -1.8 139 0 1 4
8.2 2.8 -1.8 140 0 1 4
8.2 3.2 -1.8 138 0 1 4
8.2 3.6 -1.8 142 0 1 4
8.2 4 -1.7 129 0 1 4
8.2 4.3 -1.6 125 0 1 4
8.2 4.7 -1.3 92 0 1 4
8.2 5.1 -1.1 105 0 1 4
8.2 5.5 -0.8 110 0 1 4
8.2 5.9 -0.5 114 0 1 4
8.2 6.6 -0.1 142 0 1 4
8.2 7.4 0 167 0 1 1
8.2 8.2 0 151 0 1 1
8.6 -3.6 -0.5 130 0 1 4
8.6 -3.1 -0.8 125 0 1 4
8.6 -2.7 -1.1 128 0 1 4
8.6 -2.3 -1.3 101 0 1 4
8.6 -1.9 -1.6 143 0 1 4
8.6 -1.5 -1.7 131 0 1 4
8.6 -1.1 -1.8 131 0 1 4
8.6 -0.7 -1.8 131 0 1 4
8.6 -0.4 -1.8 125 0 1 4
8.6 0 -1.8 134 0 1 4
8.6 0.4 -1.8 117 0 1 4
8.6 0.8 -1.8 135 0 1 4
8.6 1.2 -1.8 134 0 1 4
8.6 1.6 -1.8 132 0 1 4
8.6 2 -1.8 122 0 1 4
8.6 2.4 -1.8 135 0 1 4
8.6 2.8 -1.8 135 0 1 4
8.6 3.2 -1.8 137 0 1 4
8.6 3.6 -1.8 133 0 1 4
8.6 4 -1.7 132 0 1 4
8.6 4.3 -1.6 133 0 1 4
8.6 4.7 -1.3 92 0 1 4
8.6 5.1 -1.1 92 0 1 4
8.6 5.5 -0.8 107 0 1 4
8.6 5.9 -0.5 157 0 1 4
9 -9.1 0 157 0 1 1
9 -8.3 0 157 0 1 1
9 -7.5 0 154 0 1 1
9 -6.7 0 163 0 1 1
9 -5.1 0 168 0 1 1
9 -4.4 -0.1 164 0 1 4
9 -3.6 -0.5 100 0 1 4
9 -3.1 -0.8 124 0 1 4
9 -2.7 -1.1 115 0 1 4
9 -2.3 -1.3 119 0 1 4
9 -1.9 -1.6 136 0 1 4
9 -1.5 -1.7 140 0 1 4
9 -1.1 -1.8 140 0 1 4
9 -0.7 -1.8 140 0 1 4
9 -0.4 -1.8 130 0 1 4
9 0 -1.8 113 0 1 4
9 0.4 -1.8 136 0 1 4
9 0.8 -1.8 144 0 1 4
9 1.2 -1.8 133 0 1 4
9 1.6 -1.8 138 0 1 4
9 2 -1.8 135 0 1 4
9 2.4 -1.8 127 0 1 4
9 2.8 -1.8 142 0 1 4
9 3.2 -1.8 134 0 1 4
9 3.6 -1.8 136 0 1 4
9 4 -1.7 132 0 1 4
9 4.3 -1.6 142 0 1 4
9 4.7 -1.3 110 0 1 4
9 5.1 -1.1 112 0 1 4
9 5.5 -0.8 111 0 1 4
9 5.9 -0.5 130 0 1 4
9 6.6 -0.1 176 0 1 4
9 7.4 0 174 0 1 1
9 8.2 0 153 0 1 1
9 9 0 155 0 1 1
9.4 -3.6 -0.5 145 0 1 4
9.4 -3.1 -0.8 127 0 1 4
9.4 -2.7 -1.1 121 0 1 4
9.4 -2.3 -1.3 132 0 1 4
9.4 -1.9 -1.6 136 0 1 4
9.4 -1.5 -1.7 148 0 1 4
9.4 -1.1 -1.8 120 0 1 4
9.4 -0.7 -1.8 108 0 1 4
9.4 -0.4 -1.8 111 0 1 4
9.4 0 -1.8 127 0 1 4
9.4 0.4 -1.8 127 0 1 4
9.4 0.8 -1.8 126 0 1 4
9.4 1.2 -1.8 138 0 1 4
9.4 1.6 -1.8 136 0 1 4
9.4 2 -1.8 144 0 1 4
9.4 2.4 -1.8 130 0 1 4
9.4 2.8 -1.8 143 0 1 4
9.4 3.2 -1.8 138 0 1 4
9.4 3.6 -1.8 126 0 1 4
9.4 4 -1.7 131 0 1 4
9.4 4.3 -1.6 104 0 1 4
9.4 4.7 -1.3 116 0 1 4
9.4 5.1 -1.1 122 0 1 4
9.4 5.5 -0.8 107 0 1 4
9.4 5.9 -0.5 144 0 1 4
9.8 -9.9 0 167 0 1 1
9.8 -9.1 0 114 0 1 1
9.8 -8.3 0 163 0 1 1
9.8 -7.5 0 139 0 1 1
9.8 -6.7 0 157 0 1 1
9.8 -5.9 0 160 0 1 1
9.8 -5.1 0 165 0 1 1
9.8 -4.4 -0.1 157 0 1 4
9.8 -3.6 -0.5 149 0 1 4
9.8 -3.1 -0.8 112 0 1 4
9.8 -2.7 -1.1 131 0 1 4
9.8 -2.3 -1.3 129 0 1 4
9.8 -1.9 -1.6 137 0 1 4
9.8 -1.5 -1.7 125 0 1 4
9.8 -1.1 -1.8 113 0 1 4
9.8 -0.7 -1.8 124 0 1 4
9.8 -0.4 -1.8 129 0 1 4
9.8 0 -1.8 132 0 1 4
9.8 0.4 -1.8 133 0 1 4
9.8 0.8 -1.8 132 0 1 4
9.8 1.2 -1.8 128 0 1 4
9.8 1.6 -1.8 138 0 1 4
9.8 2 -1.8 142 0 1 4
9.8 2.4 -1.8 142 0 1 4
9.8 2.8 -1.8 147 0 1 4
9.8 3.2 -1.8 148 0 1 4
9.8 3.6 -1.8 137 0 1 4
9.8 4 -1.7 124 0 1 4
9.8 4.3 -1.6 139 0 1 4
9.8 4.7 -1.3 116 0 1 4
9.8 5.1 -1.1 87 0 1 4
9.8 5.5 -0.8 101 0 1 4
9.8 5.9 -0.5 164 0 1 4
9.8 6.6 -0.1 149 0 1 4
9.8 7.4 0 163 0 1 1
9.8 8.2 0 160 0 1 1
9.8 9 0 164 0 1 1
9.8 9.8 0 162 0 1 1
10.1 -3.6 -0.5 155 0 1 4
10.1 -3.1 -0.8 135 0 1 4
10.1 -2.7 -1.1 136 0 1 4
10.1 -2.3 -1.3 123 0 1 4
10.1 -1.9 -1.6 134 0 1 4
10.1 -1.5 -1.7 136 0 1 4
10.1 -1.1 -1.8 124 0 1 4
10.1 -0.7 -1.8 110 0 1 4
10.1 -0.4 -1.8 118 0 1 4
10.1 0 -1.8 114 0 1 4
10.1 0.4 -1.8 127 0 1 4
10.1 0.8 -1.8 142 0 1 4
10.1 1.2 -1.8 140 0 1 4
10.1 1.6 -1.8 133 0 1 4
10.1 2 -1.8 139 0 1 4
10.1 2.4 -1.8 133 0 1 4
10.1 2.8 -1.8 138 0 1 4
10.1 3.2 -1.8 139 0 1 4
10.1 3.6 -1.8 145 0 1 4
10.1 4 -1.7 140 0 1 4
10.1 4.3 -1.6 121 0 1 4
10.1 4.7 -1.3 87 0 1 4
10.1 5.1 -1.1 109 0 1 4
10.1 5.5 -0.8 119 0 1 4
10.1 5.9 -0.5 146 0 1 4
10.2 8 0 58 0 1 2
10.2 8 0.1 58 0 1 2
10.2 8.1 0 58 0 1 2
10.2 8.1 0.1 54 0 1 2
10.2 8.1 0.2 100 0 1 2
10.2 8.2 -0.1 165 0 1 2
10.2 8.2 0.1 55 0 1 2
10.2 8.2 0.2 72 0 1 2
10.2 8.4 0 56 0 1 2
10.2 8.4 0.1 81 0 1 2
10.2 8.5 0 57 0 1 2
10.3 7.7 0 61 0 1 2
10.3 7.7 0.2 60 0 1 2
10.3 7.8 0 45 0 1 2
10.3 7.8 0.2 61 0 1 2
10.3 7.8 0.3 103 0 1 2
10.3 7.9 0 62 0 1 2
10.3 7.9 0.2 61 0 1 2
10.3 7.9 0.4 127 0 1 2
10.3 8 0.3 94 0 1 2
10.3 8 0.4 115 0 1 2
10.3 8.3 0.2 108 0 1 2
10.3 8.3 0.3 110 0 1 2
10.3 8.5 0 109 0 1 2
10.3 8.5 0.1 104 0 1 2
10.3 8.5 0.2 151 0 1 2
10.4 7.6 0.2 59 0 1 2
10.4 7.6 0.3 61 0 1 2
10.4 7.7 -0.1 151 0 1 2
10.4 7.7 0.1 61 0 1 2
10.4 7.7 0.3 122 0 1 2
10.4 7.8 0 127 0 1 2
10.4 7.8 0.3 135 0 1 2
10.4 8.5 0.2 146 0 1 2
10.4 8.6 0.2 143 0 1 2
10.5 -10.6 0 146 0 1 1
10.5 -9.9 0 159 0 1 1
10.5 -9.1 0 158 0 1 1
10.5 -8.3 0 164 0 1 1
10.5 -7.5 0 128 0 1 1
10.5 -6.7 0 156 0 1 1
10.5 -5.9 0 160 0 1 1
10.5 -5.1 0 165 0 1 1
10.5 -4.4 -0.1 156 0 1 4
10.5 -3.6 -0.5 156 0 1 4
10.5 -3.1 -0.8 133 0 1 4
10.5 -2.7 -1.1 130 0 1 4
10.5 -2.3 -1.3 116 0 1 4
10.5 -1.9 -1.6 133 0 1 4
10.5 -1.5 -1.7 136 0 1 4
10.5 -1.1 -1.8 117 0 1 4
10.5 -0.7 -1.8 121 0 1 4
10.5 -0.4 -1.8 121 0 1 4
10.5 0 -1.8 128 0 1 4
10.5 0.4 -1.8 146 0 1 4
10.5 0.8 -1.8 127 0 1 4
10.5 1.2 -1.8 144 0 1 4
10.5 1.6 -1.8 134 0 1 4
10.5 2 -1.8 133 0 1 4
10.5 2.4 -1.8 144 0 1 4
10.5 2.8 -1.8 139 0 1 4
10.5 3.2 -1.8 136 0 1 4
10.5 3.6 -1.8 149 0 1 4
10.5 4 -1.7 134 0 1 4
10.5 4.3 -1.6 115 0 1 4
10.5 4.7 -1.3 104 0 1 4
10.5 5.1 -1.1 87 0 1 4
10.5 5.5 -0.8 83 0 1 4
10.5 5.9 -0.5 104 0 1 4
10.5 6.6 -0.1 154 0 1 4
10.5 7.4 0 166 0 1 1
10.5 7.6 0 57 0 1 2
10.5 7.6 0.1 57 0 1 2
10.5 7.6 0.2 54 0 1 2
10.5 7.6 0.3 124 0 1 2
10.5 7.9 0.4 166 0 1 2
10.5 8 0.4 157 0 1 2
10.5 8.1 0.3 150 0 1 2
10.5 8.4 0.3 151 0 1 2
10.5 8.6 0.2 153 0 1 2
10.5 9 0 160 0 1 1
10.5 9.8 0 161 0 1 1
10.5 10.5 0 163 0 1 1
10.6 7.6 0.1 62 0 1 2
10.6 7.6 0.2 67 0 1 2
10.6 7.6 0.3 134 0 1 2
10.6 7.8 0.3 171 0 1 2
10.6 8 0.4 157 0 1 2
10.6 8.2 0.3 152 0 1 2
10.6 8.3 0.3 147 0 1 2
10.6 8.5 0.2 154 0 1 2
10.6 8.6 0.2 159 0 1 2
10.7 7.6 0.1 68 0 1 2
10.7 7.6 0.2 74 0 1 2
10.7 7.6 0.3 161 0 1 2
10.7 7.7 -0.1 150 0 1 2
10.7 7.8 0.3 167 0 1 2
10.8 7.7 0.1 74 0 1 2
10.8 7.7 0.2 80 0 1 2
10.8 7.7 0.3 145 0 1 2
10.9 -3.6 -0.5 125 0 1 4
10.9 -3.2 -0.7 111 0 1 4
10.9 -2.7 -1 108 0 1 4
10.9 -2.3 -1.2 117 0 1 4
10.9 -1.9 -1.5 124 0 1 4
10.9 -1.5 -1.6 143 0 1 4
10.9 -1.1 -1.7 138 0 1 4
10.9 -0.7 -1.7 133 0 1 4
10.9 -0.4 -1.7 139 0 1 4
10.9 0 -1.7 134 0 1 4
10.9 0.4 -1.7 149 0 1 4
10.9 0.8 -1.7 157 0 1 4
10.9 1.2 -1.7 148 0 1 4
10.9 1.6 -1.7 153 0 1 4
10.9 2 -1.7 153 0 1 4
10.9 2.4 -1.7 152 0 1 4
10.9 2.8 -1.7 148 0 1 4
10.9 3.2 -1.7 156 0 1 4
10.9 3.6 -1.7 151 0 1 4
10.9 4 -1.6 144 0 1 4
10.9 4.3 -1.5 129 0 1 4
10.9 4.7 -1.2 117 0 1 4
10.9 5.1 -1 125 0 1 4
10.9 5.5 -0.7 107 0 1 4
10.9 5.9 -0.5 124 0 1 4
10.9 7.8 0 77 0 1 2
11.2 -8.2 0.1 59 0 1 3
11.2 -8 0.4 65 0 1 3
11.3 -11.4 0 161 0 1 1
11.3 -10.6 0 148 0 1 1
11.3 -9.9 0 140 0 1 1
11.3 -9.1 0 162 0 1 1
11.3 -8.1 -0.1 152 0 1 3
11.3 -7.9 0.2 93 0 1 3
11.3 -7.5 0 152 0 1 1
11.3 -6.7 0 154 0 1 1
11.3 -5.9 0 154 0 1 1
11.3 -5.1 0 165 0 1 1
11.3 -4.4 -0.1 168 0 1 4
11.3 -3.6 -0.4 164 0 1 4
11.3 -3.2 -0.7 123 0 1 4
11.3 -2.7 -0.9 132 0 1 4
11.3 -2.3 -1.2 119 0 1 4
11.3 -1.9 -1.4 114 0 1 4
11.3 -1.5 -1.5 146 0 1 4
11.3 -1.1 -1.6 133 0 1 4
11.3 -0.8 -1.6 115 0 1 4
11.3 -0.4 -1.6 119 0 1 4
11.3 0 -1.6 129 0 1 4
11.3 0.4 -1.6 135 0 1 4
11.3 0.8 -1.6 143 0 1 4
11.3 1.2 -1.6 151 0 1 4
11.3 1.6 -1.6 146 0 1 4
11.3 2 -1.6 149 0 1 4
11.3 2.4 -1.6 144 0 1 4
11.3 2.8 -1.6 148 0 1 4
11.3 3.2 -1.6 138 0 1 4
11.3 3.6 -1.6 135 0 1 4
11.3 3.9 -1.5 143 0 1 4
11.3 4.3 -1.4 108 0 1 4
11.3 4.7 -1.2 94 0 1 4
11.3 5.1 -0.9 101 0 1 4
11.3 5.5 -0.7 105 0 1 4
11.3 5.9 -0.4 134 0 1 4
11.3 6.6 -0.1 168 0 1 4
11.3 7.4 0 161 0 1 1
11.3 9.8 0 150 0 1 1
11.3 10.5 0 143 0 1 1
11.3 11.3 0 163 0 1 1
11.4 -8.4 0.5 62 0 1 3
11.4 -8 0.6 65 0 1 3
11.5 -8.2 0.7 55 0 1 3
11.5 -7.8 0.4 104 0 1 3
11.5 -7.7 0 67 0 1 3
11.6 -8.6 0.4 62 0 1 3
11.6 -8.5 0.5 62 0 1 3
11.6 -8 0.9 90 0 1 3
11.7 -8.2 0.9 95 0 1 3
11.7 -7.8 0.6 84 0 1 3
11.7 -3.6 -0.3 147 0 1 4
11.7 -3.2 -0.6 139 0 1 4
11.7 -2.8 -0.8 148 0 1 4
11.7 -2.4 -1 134 0 1 4
11.7 -2 -1.2 119 0 1 4
11.7 -1.6 -1.2 128 0 1 4
11.7 -1.2 -1.3 108 0 1 4
11.7 -0.8 -1.3 83 0 1 4
11.7 -0.4 -1.3 78 0 1 4
11.7 0 -1.3 119 0 1 4
11.7 0.4 -1.3 100 0 1 4
11.7 0.8 -1.3 116 0 1 4
11.7 1.2 -1.3 106 0 1 4
11.7 1.6 -1.3 116 0 1 4
11.7 2 -1.3 118 0 1 4
11.7 2.4 -1.3 112 0 1 4
11.7 2.8 -1.3 108 0 1 4
11.7 3.2 -1.3 95 0 1 4
11.7 3.5 -1.3 103 0 1 4
11.7 3.9 -1.2 99 0 1 4
11.7 4.3 -1.2 102 0 1 4
11.7 4.7 -1 113 0 1 4
11.7 5.1 -0.8 114 0 1 4
11.7 5.5 -0.6 129 0 1 4
11.7 5.8 -0.3 173 0 1 4
11.8 -8.3 1 65 0 1 3
11.8 -8 1.1 106 0 1 3
11.9 -8.5 1 105 0 1 3
11.9 -8.1 1.1 111 0 1 3
11.9 -7.3 0.1 66 0 1 3
12 -8.3 1.2 122 0 1 3
12 -7.9 1.3 96 0 1 3
12.1 -12.2 0 134 0 1 1
12.1 -11.4 0 139 0 1 1
12.1 -10.6 0 157 0 1 1
12.1 -9.9 0 159 0 1 1
12.1 -8.6 1.1 80 0 1 3
12.1 -8.2 1.2 126 0 1 3
12.1 -7.9 1.3 115 0 1 3
12.1 -7.4 0.8 81 0 1 3
12.1 -6.7 0 169 0 1 1
12.1 -5.9 0 155 0 1 1
12.1 -5.1 0 157 0 1 1
12.1 -4.4 -0.1 167 0 1 4
12.1 -3.6 -0.3 162 0 1 4
12.1 -3.2 -0.4 149 0 1 4
12.1 -2.8 -0.6 137 0 1 4
12.1 -2.4 -0.8 117 0 1 4
12.1 -2 -0.9 106 0 1 4
12.1 -1.6 -1 114 0 1 4
12.1 -1.2 -1.1 99 0 1 4
12.1 -0.8 -1.1 85 0 1 4
12.1 -0.4 -1.1 104 0 1 4
12.1 0 -1.1 120 0 1 4
12.1 0.4 -1.1 97 0 1 4
12.1 0.8 -1.1 111 0 1 4
12.1 1.2 -1.1 119 0 1 4
12.1 1.6 -1.1 121 0 1 4
12.1 2 -1.1 109 0 1 4
12.1 2.4 -1.1 116 0 1 4
12.1 2.7 -1.1 111 0 1 4
12.1 3.1 -1.1 112 0 1 4
12.1 3.5 -1.1 90 0 1 4
12.1 3.9 -1 119 0 1 4
12.1 4.3 -0.9 118 0 1 4
12.1 4.7 -0.8 95 0 1 4
12.1 5.1 -0.6 121 0 1 4
12.1 5.5 -0.4 128 0 1 4
12.1 5.8 -0.3 164 0 1 4
12.1 6.6 -0.1 167 0 1 4
12.1 7.4 0 164 0 1 1
12.1 8.2 0 160 0 1 1
12.1 10.5 0 161 0 1 1
12.1 11.3 0 138 0 1 1
12.1 12.1 0 162 0 1 1
12.2 -7.9 1.4 127 0 1 3
12.3 -7.6 1.2 107 0 1 3
12.3 -6.9 0.2 103 0 1 3
12.4 -7.6 1.3 125 0 1 3
12.4 -7.1 0.7 100 0 1 3
12.4 -6.8 0 70 0 1 3
12.5 -8.7 1.3 126 0 1 3
12.5 -8.1 1.5 138 0 1 3
12.5 -3.6 -0.2 166 0 1 4
12.5 -3.2 -0.3 147 0 1 4
12.5 -2.8 -0.4 137 0 1 4
12.5 -2.4 -0.6 131 0 1 4
12.5 -2 -0.7 120 0 1 4
12.5 -1.6 -0.7 85 0 1 4
12.5 -1.2 -0.8 82 0 1 4
12.5 -0.8 -0.8 87 0 1 4
12.5 -0.4 -0.8 88 0 1 4
12.5 0 -0.8 101 0 1 4
12.5 0.4 -0.8 106 0 1 4
12.5 0.8 -0.8 89 0 1 4
12.5 1.2 -0.8 108 0 1 4
12.5 1.6 -0.8 102 0 1 4
12.5 2 -0.8 115 0 1 4
12.5 2.3 -0.8 107 0 1 4
12.5 2.7 -0.8 116 0 1 4
12.5 3.1 -0.8 94 0 1 4
12.5 3.5 -0.8 116 0 1 4
12.5 3.9 -0.7 108 0 1 4
12.5 4.3 -0.7 121 0 1 4
12.5 4.7 -0.6 124 0 1 4
12.5 5.1 -0.4 142 0 1 4
12.5 5.5 -0.3 150 0 1 4
12.5 5.8 -0.2 174 0 1 4
12.6 -8.3 1.5 137 0 1 3
12.6 -7.2 1.2 156 0 1 3
12.9 -13 0 161 0 1 1
12.9 -12.2 0 166 0 1 1
12.9 -11.4 0 166 0 1 1
12.9 -10.6 0 157 0 1 1
12.9 -8.5 1.6 139 0 1 3
12.9 -8.3 1.7 160 0 1 3
12.9 -6.5 0.1 100 0 1 3
12.9 -5.9 0 168 0 1 1
12.9 -5.1 0 166 0 1 1
12.9 -4.4 0 173 0 1 1
12.9 -3.6 -0.1 157 0 1 4
12.9 -3.2 -0.2 145 0 1 4
12.9 -2.8 -0.3 157 0 1 4
12.9 -2.4 -0.3 140 0 1 4
12.9 -2 -0.4 127 0 1 4
12.9 -1.6 -0.5 125 0 1 4
12.9 -1.2 -0.5 133 0 1 4
12.9 -0.8 -0.5 125 0 1 4
12.9 -0.4 -0.5 153 0 1 4
12.9 0 -0.5 149 0 1 4
12.9 0.4 -0.5 154 0 1 4
12.9 0.8 -0.5 168 0 1 4
12.9 1.2 -0.5 164 0 1 4
12.9 1.5 -0.5 162 0 1 4
12.9 1.9 -0.5 160 0 1 4
12.9 2.3 -0.5 161 0 1 4
12.9 2.7 -0.5 153 0 1 4
12.9 3.1 -0.5 159 0 1 4
12.9 3.5 -0.5 164 0 1 4
12.9 3.9 -0.5 159 0 1 4
12.9 4.3 -0.4 130 0 1 4
12.9 4.7 -0.3 130 0 1 4
12.9 5.1 -0.3 144 0 1 4
12.9 5.4 -0.2 170 0 1 4
12.9 5.8 -0.1 165 0 1 4
12.9 6.6 0 165 0 1 1
12.9 7.4 0 167 0 1 1
12.9 8.2 0 162 0 1 1
12.9 9 0 163 0 1 1
12.9 10.5 0 149 0 1 1
12.9 11.3 0 155 0 1 1
12.9 12.1 0 147 0 1 1
12.9 12.9 0 146 0 1 1
13 -9.7 0.4 62 0 1 3
13 -8.8 1.5 140 0 1 3
13.1 -9.3 1.3 96 0 1 3
13.1 -8.7 1.6 129 0 1 3
13.1 -8.5 1.6 135 0 1 3
13.1 -6.7 0.7 97 0 1 3
13.2 -8.7 1.6 129 0 1 3
13.2 -6.8 1.2 155 0 1 3
13.5 -9.4 1.6 131 0 1 3
13.5 -6.1 0 74 0 1 3
13.6 -7.6 1.5 167 0 1 3
13.7 -13.8 0 157 0 1 1
13.7 -13 0 154 0 1 1
13.7 -12.2 0 158 0 1 1
13.7 -11.4 0 128 0 1 1
13.7 -10.6 0 128 0 1 1
13.7 -9.4 1.6 136 0 1 3
13.7 -6.2 0.5 127 0 1 3
13.7 -6.1 0.3 107 0 1 3
13.7 -5.9 0 142 0 1 1
13.7 -5.1 0 159 0 1 1
13.7 -4.4 0 158 0 1 1
13.7 -3.6 0 159 0 1 1
13.7 -2.8 -0.1 127 0 1 4
13.7 -2 -0.1 164 0 1 4
13.7 -1.2 -0.1 162 0 1 4
13.7 -0.4 -0.1 151 0 1 4
13.7 0.3 -0.1 151 0 1 4
13.7 1.1 -0.1 163 0 1 4
13.7 1.9 -0.1 168 0 1 4
13.7 2.7 -0.1 157 0 1 4
13.7 3.5 -0.1 164 0 1 4
13.7 4.3 -0.1 172 0 1 4
13.7 5 -0.1 164 0 1 4
13.7 5.8 0 173 0 1 1
13.7 6.6 0 167 0 1 1
13.7 7.4 0 162 0 1 1
13.7 8.2 0 145 0 1 1
13.7 9 0 169 0 1 1
13.7 9.8 0 153 0 1 1
13.7 10.5 0 159 0 1 1
13.7 11.3 0 151 0 1 1
13.7 12.1 0 160 0 1 1
13.7 12.9 0 163 0 1 1
13.7 13.7 0 153 0 1 1
13.8 -7.3 1.4 165 0 1 3
13.8 -6.1 0.2 114 0 1 3
13.9 -8 1.7 156 0 1 3
13.9 -7 1.3 159 0 1 3
13.9 -6.4 1.1 134 0 1 3
13.9 -6.3 0.8 120 0 1 3
13.9 -6.1 0.5 125 0 1 3
14 -10.6 0.5 124 0 1 3
14 -10.5 0.7 59 0 1 3
14 -7.8 1.6 171 0 1 3
14.1 -10.3 1.2 61 0 1 3
14.1 -10.2 1.4 60 0 1 3
14.1 -10 1.6 82 0 1 3
14.1 -8.2 1.6 146 0 1 3
14.2 -8.4 1.6 127 0 1 3
14.5 -14.6 0 164 0 1 1
14.5 -13.8 0 153 0 1 1
14.5 -13 0 159 0 1 1
14.5 -12.2 0 149 0 1 1
14.5 -11.4 0 151 0 1 1
14.5 -5.9 0 158 0 1 1
14.5 -5.1 0 156 0 1 1
14.5 -4.4 0 153 0 1 1
14.5 -3.6 0 163 0 1 1
14.5 -2.8 0 162 0 1 1
14.5 -2 0 160 0 1 1
14.5 -1.2 0 149 0 1 1
14.5 -0.4 0 170 0 1 1
14.5 0.3 0 165 0 1 1
14.5 1.1 0 178 0 1 1
14.5 1.9 0 166 0 1 1
14.5 2.7 0 174 0 1 1
14.5 3.5 0 174 0 1 1
14.5 4.3 0 170 0 1 1
14.5 5 0 171 0 1 1
14.5 5.8 0 171 0 1 1
14.5 6.6 0 175 0 1 1
14.5 7.4 0 161 0 1 1
14.5 8.2 0 161 0 1 1
14.5 9 0 165 0 1 1
14.5 9.8 0 164 0 1 1
14.5 10.5 0 166 0 1 1
14.5 11.3 0 165 0 1 1
14.5 12.1 0 159 0 1 1
14.5 12.9 0 155 0 1 1
14.5 13.7 0 155 0 1 1
14.5 14.5 0 151 0 1 1
14.6 -6.6 1.2 165 0 1 3
14.6 -6.5 1.2 160 0 1 3
14.6 -6.4 0.9 137 0 1 3
14.6 -6.2 0.1 113 0 1 3
14.7 -9.8 1.6 124 0 1 3
14.7 -6.2 0.5 127 0 1 3
14.9 -7.7 1.7 106 0 1 3
15 -7.5 1.6 113 0 1 3
15.1 -7.9 1.7 164 0 1 3
15.1 -7.3 1.5 99 0 1 3
15.2 -15.3 0 152 0 1 1
15.2 -14.6 0 144 0 1 1
15.2 -13.8 0 116 0 1 1
15.2 -13 0 134 0 1 1
15.2 -12.2 0 142 0 1 1
15.2 -8.2 1.6 155 0 1 3
15.2 -7.7 1.6 167 0 1 3
15.2 -7.1 1.4 108 0 1 3
15.2 -6.8 1.4 112 0 1 3
15.2 -6.7 1.3 137 0 1 3
15.2 -5.9 0 162 0 1 1
15.2 -5.1 0 158 0 1 1
15.2 -4.4 0 166 0 1 1
15.2 -3.6 0 166 0 1 1
15.2 -2.8 0 167 0 1 1
15.2 -2 0 161 0 1 1
15.2 -1.2 0 167 0 1 1
15.2 -0.4 0 162 0 1 1
15.2 0.3 0 169 0 1 1
15.2 1.1 0 171 0 1 1
15.2 1.9 0 167 0 1 1
15.2 2.7 0 180 0 1 1
15.2 3.5 0 172 0 1 1
15.2 4.3 0 176 0 1 1
15.2 5 0 164 0 1 1
15.2 5.8 0 168 0 1 1
15.2 6.6 0 165 0 1 1
15.2 7.4 0 168 0 1 1
15.2 8.2 0 163 0 1 1
15.2 9 0 161 0 1 1
15.2 9.8 0 158 0 1 1
15.2 10.5 0 168 0 1 1
15.2 11.3 0 164 0 1 1
15.2 12.1 0 163 0 1 1
15.2 12.9 0 168 0 1 1
15.2 13.7 0 153 0 1 1
15.2 14.5 0 156 0 1 1
15.2 15.2 0 154 0 1 1
15.3 -9.6 1.6 140 0 1 3
15.4 -6.5 0.9 125 0 1 3
15.5 -6.3 0.4 86 0 1 3
15.6 -6.3 0.1 130 0 1 3
16 -16.1 0 155 0 1 1
16 -15.3 0 119 0 1 1
16 -14.6 0 139 0 1 1
16 -13.8 0 154 0 1 1
16 -13 0 154 0 1 1
16 -5.9 0 144 0 1 1
16 -5.1 0 157 0 1 1
16 -4.4 0 166 0 1 1
16 -3.6 0 167 0 1 1
16 -2.8 0 164 0 1 1
16 -2 0 170 0 1 1
16 -1.2 0 158 0 1 1
16 -0.4 0 167 0 1 1
16 0.3 0 163 0 1 1
16 1.1 0 176 0 1 1
16 1.9 0 170 0 1 1
16 2.7 0 172 0 1 1
16 3.5 0 171 0 1 1
16 4.3 0 170 0 1 1
16 5 0 169 0 1 1
16 5.8 0 161 0 1 1
16 6.6 0 166 0 1 1
16 7.4 0 165 0 1 1
16 8.2 0 169 0 1 1
16 9 0 163 0 1 1
16 9.8 0 163 0 1 1
16 10.5 0 155 0 1 1
16 11.3 0 163 0 1 1
16 12.1 0 153 0 1 1
16 12.9 0 159 0 1 1
16 13.7 0 156 0 1 1
16 14.5 0 167 0 1 1
16 15.2 0 160 0 1 1
16 16 0 161 0 1 1
16.8 -16.9 0 149 0 1 1
16.8 -16.1 0 148 0 1 1
16.8 -15.3 0 144 0 1 1
16.8 -14.6 0 154 0 1 1
16.8 -13.8 0 147 0 1 1
16.8 -13 0 124 0 1 1
16.8 -6.7 0 161 0 1 1
16.8 -5.9 0 150 0 1 1
16.8 -5.1 0 159 0 1 1
16.8 -4.4 0 157 0 1 1
16.8 -3.6 0 167 0 1 1
16.8 -2.8 0 162 0 1 1
16.8 -2 0 155 0 1 1
16.8 -1.2 0 139 0 1 1
16.8 -0.4 0 163 0 1 1
16.8 0.3 0 171 0 1 1
16.8 1.1 0 153 0 1 1
16.8 1.9 0 166 0 1 1
16.8 2.7 0 170 0 1 1
16.8 3.5 0 169 0 1 1
16.8 4.3 0 175 0 1 1
16.8 5 0 170 0 1 1
16.8 5.8 0 171 0 1 1
16.8 6.6 0 170 0 1 1
16.8 7.4 0 165 0 1 1
16.8 8.2 0 163 0 1 1
16.8 9 0 167 0 1 1
16.8 9.8 0 162 0 1 1
16.8 10.5 0 149 0 1 1
16.8 11.3 0 171 0 1 1
16.8 12.1 0 155 0 1 1
16.8 12.9 0 164 0 1 1
16.8 13.7 0 160 0 1 1
16.8 14.5 0 159 0 1 1
16.8 15.2 0 159 0 1 1
16.8 16 0 161 0 1 1
16.8 16.8 0 162 0 1 1
17.6 -17.7 0 150 0 1 1
17.6 -16.9 0 141 0 1 1
17.6 -16.1 0 149 0 1 1
17.6 -15.3 0 135 0 1 1
17.6 -14.6 0 144 0 1 1
17.6 -13.8 0 147 0 1 1
17.6 -6.7 0 119 0 1 1
17.6 -5.9 0 155 0 1 1
17.6 -5.1 0 152 0 1 1
17.6 -4.4 0 158 0 1 1
17.6 -3.6 0 160 0 1 1
17.6 -2.8 0 159 0 1 1
17.6 -2 0 168 0 1 1
17.6 -1.2 0 161 0 1 1
17.6 -0.4 0 163 0 1 1
17.6 0.3 0 164 0 1 1
17.6 1.1 0 165 0 1 1
17.6 1.9 0 175 0 1 1
17.6 2.7 0 169 0 1 1
17.6 3.5 0 172 0 1 1
17.6 4.3 0 170 0 1 1
17.6 5 0 174 0 1 1
17.6 5.8 0 176 0 1 1
17.6 6.6 0 168 0 1 1
17.6 7.4 0 163 0 1 1
17.6 8.2 0 162 0 1 1
17.6 9 0 168 0 1 1
17.6 9.8 0 163 0 1 1
17.6 10.5 0 164 0 1 1
17.6 11.3 0 157 0 1 1
17.6 12.1 0 162 0 1 1
17.6 12.9 0 164 0 1 1
17.6 13.7 0 158 0 1 1
17.6 14.5 0 154 0 1 1
17.6 15.2 0 155 0 1 1
17.6 16 0 155 0 1 1
17.6 16.8 0 137 0 1 1
17.6 17.6 0 157 0 1 1
18.4 -17.7 0 151 0 1 1
18.4 -16.9 0 154 0 1 1
18.4 -16.1 0 146 0 1 1
18.4 -15.3 0 151 0 1 1
18.4 -14.6 0 147 0 1 1
18.4 -6.7 0 162 0 1 1
18.4 -5.9 0 142 0 1 1
18.4 -5.1 0 153 0 1 1
18.4 -4.4 0 164 0 1 1
18.4 -3.6 0 151 0 1 1
18.4 -2.8 0 164 0 1 1
18.4 -2 0 157 0 1 1
18.4 -1.2 0 162 0 1 1
18.4 -0.4 0 162 0 1 1
18.4 0.3 0 170 0 1 1
18.4 1.1 0 168 0 1 1
18.4 1.9 0 168 0 1 1
18.4 2.7 0 164 0 1 1
18.4 3.5 0 162 0 1 1
18.4 4.3 0 161 0 1 1
18.4 5 0 156 0 1 1
18.4 5.8 0 171 0 1 1
18.4 6.6 0 168 0 1 1
18.4 7.4 0 158 0 1 1
18.4 8.2 0 163 0 1 1
18.4 9 0 161 0 1 1
18.4 9.8 0 168 0 1 1
18.4 10.5 0 161 0 1 1
18.4 11.3 0 165 0 1 1
18.4 12.1 0 165 0 1 1
18.4 12.9 0 161 0 1 1
18.4 13.7 0 157 0 1 1
18.4 14.5 0 154 0 1 1
18.4 15.2 0 160 0 1 1
18.4 16 0 153 0 1 1
18.4 16.8 0 141 0 1 1
18.4 17.6 0 148 0 1 1
18.4 18.4 0 157 0 1 1
19.2 -18.5 0 151 0 1 1
19.2 -17.7 0 147 0 1 1
19.2 -16.9 0 129 0 1 1
19.2 -16.1 0 148 0 1 1
19.2 -15.3 0 144 0 1 1
19.2 -14.6 0 140 0 1 1
19.2 -7.5 0 133 0 1 1
19.2 -6.7 0 157 0 1 1
19.2 -5.9 0 134 0 1 1
19.2 -5.1 0 155 0 1 1
19.2 -4.4 0 161 0 1 1
19.2 -3.6 0 156 0 1 1
19.2 -2.8 0 154 0 1 1
19.2 -2 0 166 0 1 1
19.2 -1.2 0 161 0 1 1
19.2 -0.4 0 165 0 1 1
19.2 0.3 0 159 0 1 1
19.2 1.1 0 162 0 1 1
19.2 1.9 0 171 0 1 1
19.2 2.7 0 172 0 1 1
19.2 3.5 0 166 0 1 1
19.2 4.3 0 167 0 1 1
19.2 5 0 172 0 1 1
19.2 5.8 0 172 0 1 1
19.2 6.6 0 174 0 1 1
19.2 7.4 0 173 0 1 1
19.2 8.2 0 168 0 1 1
19.2 9 0 166 0 1 1
19.2 9.8 0 167 0 1 1
19.2 10.5 0 164 0 1 1
19.2 11.3 0 160 0 1 1
19.2 12.1 0 162 0 1 1
19.2 12.9 0 163 0 1 1
19.2 13.7 0 161 0 1 1
19.2 14.5 0 162 0 1 1
19.2 15.2 0 155 0 1 1
19.2 16 0 157 0 1 1
19.2 16.8 0 157 0 1 1
19.2 17.6 0 149 0 1 1
19.2 18.4 0 148 0 1 1
19.2 19.2 0 158 0 1 1
20 -19.3 0 98 0 1 1
20 -18.5 0 98 0 1 1
20 -17.7 0 96 0 1 1
20 -16.9 0 99 0 1 1
20 -16.1 0 101 0 1 1
20 -15.3 0 93 0 1 1
20 -7.5 0 101 0 1 1
20 -6.7 0 103 0 1 1
20 -5.9 0 104 0 1 1
20 -5.1 0 100 0 1 1
20 -4.4 0 103 0 1 1
20 -3.6 0 102 0 1 1
20 -2.8 0 99 0 1 1
20 -2 0 104 0 1 1
20 -1.2 0 103 0 1 1
20 -0.4 0 107 0 1 1
20 0.3 0 109 0 1 1
20 1.1 0 102 0 1 1
20 1.9 0 108 0 1 1
20 2.7 0 113 0 1 1
20 3.5 0 110 0 1 1
20 4.3 0 109 0 1 1
20 5 0 109 0 1 1
20 5.8 0 104 0 1 1
20 6.6 0 111 0 1 1
20 7.4 0 110 0 1 1
20 8.2 0 110 0 1 1
20 9 0 107 0 1 1
20 9.8 0 110 0 1 1
20 10.5 0 107 0 1 1
20 11.3 0 109 0 1 1
20 12.1 0 104 0 1 1
20 12.9 0 105 0 1 1
20 13.7 0 103 0 1 1
20 14.5 0 103 0 1 1
20 15.2 0 104 0 1 1
20 16 0 102 0 1 1
20 16.8 0 103 0 1 1
20 17.6 0 104 0 1 1
20 18.4 0 99 0 1 1
20 19.2 0 103 0 1 1
20 20 0 97 0 1 1
