-20 20 0 87 0 1 1
-19.3 19.2 0 139 0 1 1
-19.3 20 0 94 0 1 1
-18.5 18.4 0 144 0 1 1
-18.5 19.2 0 144 0 1 1
-18.5 20 0 94 0 1 1
-17.7 17.6 0 144 0 1 1
-17.7 18.4 0 145 0 1 1
-17.7 19.2 0 142 0 1 1
-17.7 20 0 96 0 1 1
-16.9 16.8 0 147 0 1 1
-16.9 17.6 0 149 0 1 1
-16.9 18.4 0 149 0 1 1
-16.9 19.2 0 151 0 1 1
-16.9 20 0 99 0 1 1
-16.1 16 0 148 0 1 1
-16.1 16.8 0 146 0 1 1
-16.1 17.6 0 146 0 1 1
-16.1 18.4 0 147 0 1 1
-16.1 19.2 0 147 0 1 1
-16.1 20 0 96 0 1 1
-15.3 15.2 0 142 0 1 1
-15.3 16 0 147 0 1 1
-15.3 16.8 0 147 0 1 1
-15.3 17.6 0 146 0 1 1
-15.3 18.4 0 141 0 1 1
-15.3 19.2 0 146 0 1 1
-15.3 20 0 94 0 1 1
-14.6 14.5 0 144 0 1 1
-14.6 15.2 0 149 0 1 1
-14.6 16 0 149 0 1 1
-14.6 16.8 0 148 0 1 1
-14.6 17.6 0 152 0 1 1
-14.6 18.4 0 149 0 1 1
-14.6 19.2 0 142 0 1 1
-14.6 20 0 93 0 1 1
-13.8 13.7 0 156 0 1 1
-13.8 14.5 0 149 0 1 1
-13.8 15.2 0 149 0 1 1
-13.8 16 0 152 0 1 1
-13.8 16.8 0 149 0 1 1
-13.8 17.6 0 149 0 1 1
-13.8 18.4 0 151 0 1 1
-13.8 19.2 0 152 0 1 1
-13.8 20 0 97 0 1 1
-13 12.9 0 157 0 1 1
-13 13.7 0 144 0 1 1
-13 14.5 0 141 0 1 1
-13 15.2 0 153 0 1 1
-13 16 0 151 0 1 1
-13 16.8 0 150 0 1 1
-13 17.6 0 152 0 1 1
-13 18.4 0 152 0 1 1
-13 19.2 0 151 0 1 1
-13 20 0 97 0 1 1
-12.2 12.1 0 143 0 1 1
-12.2 12.9 0 133 0 1 1
-12.2 13.7 0 148 0 1 1
-12.2 14.5 0 154 0 1 1
-12.2 15.2 0 146 0 1 1
-12.2 16 0 144 0 1 1
-12.2 16.8 0 150 0 1 1
-12.2 17.6 0 152 0 1 1
-12.2 18.4 0 134 0 1 1
-12.2 19.2 0 147 0 1 1
-12.2 20 0 97 0 1 1
-11.4 11.3 0 158 0 1 1
-11.4 12.1 0 148 0 1 1
-11.4 12.9 0 154 0 1 1
-11.4 13.7 0 149 0 1 1
-11.4 14.5 0 150 0 1 1
-11.4 15.2 0 152 0 1 1
-11.4 16 0 150 0 1 1
-11.4 16.8 0 143 0 1 1
-11.4 17.6 0 142 0 1 1
-11.4 18.4 0 145 0 1 1
-11.4 19.2 0 147 0 1 1
-11.4 20 0 95 0 1 1
-10.6 10.5 0 155 0 1 1
-10.6 11.3 0 140 0 1 1
-10.6 12.1 0 158 0 1 1
-10.6 12.9 0 151 0 1 1
-10.6 13.7 0 149 0 1 1
-10.6 14.5 0 151 0 1 1
-10.6 15.2 0 143 0 1 1
-10.6 16 0 154 0 1 1
-10.6 16.8 0 130 0 1 1
-10.6 17.6 0 150 0 1 1
-10.6 18.4 0 147 0 1 1
-10.6 19.2 0 146 0 1 1
-10.6 20 0 91 0 1 1
-9.9 9.8 0 158 0 1 1
-9.9 10.5 0 146 0 1 1
-9.9 11.3 0 154 0 1 1
-9.9 12.1 0 156 0 1 1
-9.9 12.9 0 152 0 1 1
-9.9 13.7 0 152 0 1 1
-9.9 14.5 0 146 0 1 1
-9.9 15.2 0 143 0 1 1
-9.9 16 0 151 0 1 1
-9.9 16.8 0 147 0 1 1
-9.9 17.6 0 149 0 1 1
-9.9 18.4 0 140 0 1 1
-9.9 19.2 0 147 0 1 1
-9.9 20 0 98 0 1 1
-9.1 9 0 150 0 1 1
-9.1 9.8 0 151 0 1 1
-9.1 10.5 0 158 0 1 1
-9.1 11.3 0 157 0 1 1
-9.1 12.1 0 154 0 1 1
-9.1 12.9 0 152 0 1 1
-9.1 13.7 0 156 0 1 1
-9.1 14.5 0 148 0 1 1
-9.1 15.2 0 133 0 1 1
-9.1 16 0 152 0 1 1
-9.1 16.8 0 137 0 1 1
-9.1 17.6 0 151 0 1 1
-9.1 18.4 0 147 0 1 1
-9.1 19.2 0 143 0 1 1
-9.1 20 0 96 0 1 1
-8.3 8.2 0 156 0 1 1
-8.3 9 0 156 0 1 1
-8.3 9.8 0 155 0 1 1
-8.3 10.5 0 116 0 1 1
-8.3 11.3 0 152 0 1 1
-8.3 12.1 0 156 0 1 1
-8.3 12.9 0 150 0 1 1
-8.3 13.7 0 152 0 1 1
-8.3 14.5 0 140 0 1 1
-8.3 15.2 0 150 0 1 1
-8.3 16 0 152 0 1 1
-8.3 16.8 0 156 0 1 1
-8.3 17.6 0 154 0 1 1
-8.3 18.4 0 147 0 1 1
-8.3 19.2 0 139 0 1 1
-8.3 20 0 95 0 1 1
-7.5 7.4 0 155 0 1 1
-7.5 8.2 0 143 0 1 1
-7.5 9 0 140 0 1 1
-7.5 9.8 0 131 0 1 1
-7.5 10.5 0 152 0 1 1
-7.5 11.3 0 151 0 1 1
-7.5 12.1 0 152 0 1 1
-7.5 12.9 0 141 0 1 1
-7.5 13.7 0 158 0 1 1
-7.5 14.5 0 151 0 1 1
-7.5 15.2 0 154 0 1 1
-7.5 16 0 154 0 1 1
-7.5 16.8 0 156 0 1 1
-7.5 17.6 0 152 0 1 1
-7.5 18.4 0 136 0 1 1
-7.5 19.2 0 148 0 1 1
-7.5 20 0 94 0 1 1
-6.7 6.6 0 156 0 1 1
-6.7 7.4 0 96 0 1 1
-6.7 8.2 0 101 0 1 1
-6.7 9 0 114 0 1 1
-6.7 9.8 0 133 0 1 1
-6.7 10.5 0 151 0 1 1
-6.7 11.3 0 153 0 1 1
-6.7 12.1 0 132 0 1 1
-6.7 12.9 0 149 0 1 1
-6.7 13.7 0 153 0 1 1
-6.7 14.5 0 147 0 1 1
-6.7 15.2 0 134 0 1 1
-6.7 16 0 131 0 1 1
-6.7 16.8 0 141 0 1 1
-6.7 17.6 0 138 0 1 1
-6.7 18.4 0 137 0 1 1
-6.7 19.2 0 135 0 1 1
-6.7 20 0 97 0 1 1
-5.9 5.8 0 118 0 1 1
-5.9 6.2 0 137 0 1 1
-5.9 6.6 0 112 0 1 1
-5.9 7 0 136 0 1 1
-5.9 7.4 0 100 0 1 1
-5.9 7.8 0 91 0 1 1
-5.9 8.2 0 87 0 1 1
-5.9 9 0 108 0 1 1
-5.9 9.8 0 128 0 1 1
-5.9 10.5 0 113 0 1 1
-5.9 11.3 0 132 0 1 1
-5.9 12.1 0 119 0 1 1
-5.9 12.9 0 148 0 1 1
-5.9 13.7 0 153 0 1 1
-5.9 14.5 0 143 0 1 1
-5.9 15.2 0 147 0 1 1
-5.9 16 0 148 0 1 1
-5.9 16.8 0 138 0 1 1
-5.9 17.6 0 143 0 1 1
-5.9 18.4 0 138 0 1 1
-5.9 19.2 0 145 0 1 1
-5.9 20 0 92 0 1 1
-5.5 5.5 -0.3 112 0 1 4
-5.5 5.8 -0.3 128 0 1 4
-5.5 6.2 -0.3 129 0 1 4
-5.5 6.6 -0.3 106 0 1 4
-5.5 7 -0.3 123 0 1 4
-5.5 7.4 -0.3 111 0 1 4
-5.5 7.8 -0.2 117 0 1 4
-5.5 8.2 -0.1 87 0 1 4
-5.1 5.1 -0.6 106 0 1 4
-5.1 5.5 -0.6 118 0 1 4
-5.1 5.9 -0.6 104 0 1 4
-5.1 6.3 -0.6 88 0 1 4
-5.1 6.6 -0.6 111 0 1 4
-5.1 7 -0.6 103 0 1 4
-5.1 7.4 -0.6 117 0 1 4
-5.1 7.8 -0.4 116 0 1 4
-5.1 8.2 -0.2 126 0 1 4
-5.1 9 0 153 0 1 1
-5.1 9.8 0 137 0 1 1
-5.1 10.5 0 159 0 1 1
-5.1 12.9 0 153 0 1 1
-5.1 13.7 0 149 0 1 1
-5.1 14.5 0 137 0 1 1
-5.1 15.2 0 141 0 1 1
-5.1 16 0 146 0 1 1
-5.1 16.8 0 143 0 1 1
-5.1 17.6 0 136 0 1 1
-5.1 18.4 0 146 0 1 1
-5.1 19.2 0 144 0 1 1
-5.1 20 0 94 0 1 1
-5 10.3 0 124 0 1 2
-5 10.3 0.1 150 0 1 2
-4.9 10.1 0 59 0 1 2
-4.9 10.1 0.1 111 0 1 2
-4.9 10.1 0.2 98 0 1 2
-4.9 10.2 0 107 0 1 2
-4.9 10.2 0.1 57 0 1 2
-4.9 10.2 0.2 135 0 1 2
-4.9 10.3 0.2 145 0 1 2
-4.8 4.7 -0.7 114 0 1 4
-4.8 5.5 -1.1 94 0 1 4
-4.8 5.9 -1.1 96 0 1 4
-4.8 6.3 -1.1 85 0 1 4
-4.8 6.7 -1.1 114 0 1 4
-4.8 7.1 -1.1 110 0 1 4
-4.8 7.5 -1.1 123 0 1 4
-4.8 7.8 -0.7 114 0 1 4
-4.8 8.2 -0.4 126 0 1 4
-4.8 10 0 57 0 1 2
-4.8 10 0.1 70 0 1 2
-4.8 10.1 0 58 0 1 2
-4.8 10.1 0.1 93 0 1 2
-4.8 10.3 0.2 138 0 1 2
-4.8 10.4 0.2 141 0 1 2
-4.7 10 0 55 0 1 2
-4.7 10.4 0.2 142 0 1 2
-4.6 10 0.1 103 0 1 2
-4.6 10.1 0.2 119 0 1 2
-4.6 10.2 0.2 121 0 1 2
-4.6 10.4 0.3 143 0 1 2
-4.5 10 0 60 0 1 2
-4.5 10 0.1 115 0 1 2
-4.5 10.3 0.3 141 0 1 2
-4.4 6.3 -1.5 106 0 1 4
-4.4 6.7 -1.5 105 0 1 4
-4.4 7.1 -1.5 111 0 1 4
-4.4 7.5 -1.5 115 0 1 4
-4.4 7.8 -1.1 102 0 1 4
-4.4 8.2 -0.6 108 0 1 4
-4.4 8.6 -0.3 137 0 1 4
-4.4 9 0 142 0 1 1
-4.4 9.8 0 160 0 1 1
-4.4 10 0 65 0 1 2
-4.4 10 0.1 98 0 1 2
-4.4 10.1 0 121 0 1 2
-4.4 10.1 0.2 111 0 1 2
-4.4 10.5 0.3 153 0 1 2
-4.4 12.1 0 145 0 1 1
-4.4 12.9 0 158 0 1 1
-4.4 13.7 0 142 0 1 1
-4.4 14.5 0 144 0 1 1
-4.4 15.2 0 145 0 1 1
-4.4 16 0 152 0 1 1
-4.4 16.8 0 144 0 1 1
-4.3 10.1 -0.1 115 0 1 2
-4.3 10.1 0.1 122 0 1 2
-4.3 10.2 0 100 0 1 2
-4.3 10.2 0.2 126 0 1 2
-4.3 10.2 0.3 129 0 1 2
-4.3 10.4 0.3 146 0 1 2
-4.3 10.6 0.3 153 0 1 2
-4.2 10.2 -0.1 151 0 1 2
-4.2 10.2 0.1 126 0 1 2
-4.2 10.2 0.3 145 0 1 2
-4.2 10.3 0.2 121 0 1 2
-4.2 10.3 0.3 148 0 1 2
-4.2 10.5 0.3 153 0 1 2
-4.2 10.8 0.2 153 0 1 2
-4.1 10.2 0 110 0 1 2
-4.1 10.3 -0.1 144 0 1 2
-4.1 10.3 0.1 134 0 1 2
-4.1 10.3 0.3 149 0 1 2
-4.1 10.4 0.3 146 0 1 2
-4.1 10.7 0.2 147 0 1 2
-4 6.3 -1.5 78 0 1 4
-4 6.7 -1.5 99 0 1 4
-4 7.1 -1.5 95 0 1 4
-4 7.5 -1.5 89 0 1 4
-4 7.8 -1.1 86 0 1 4
-4 8.2 -0.6 81 0 1 4
-4 8.6 -0.3 100 0 1 4
-4 9 0 110 0 1 1
-4 10.3 0.3 148 0 1 2
-4 10.4 0.1 138 0 1 2
-4 10.4 0.2 140 0 1 2
-4 10.4 0.3 149 0 1 2
-4 10.5 0 142 0 1 2
-4 10.5 0.1 141 0 1 2
-4 10.5 0.2 150 0 1 2
-4 10.6 0.1 143 0 1 2
-4 10.6 0.2 144 0 1 2
-3.7 14.4 0.2 150 0 1 3
-3.7 14.5 0 104 0 1 3
-3.6 3.5 0 135 0 1 1
-3.6 6.3 -1.5 114 0 1 4
-3.6 6.7 -1.5 106 0 1 4
-3.6 7.1 -1.5 108 0 1 4
-3.6 7.5 -1.5 104 0 1 4
-3.6 7.8 -1.1 79 0 1 4
-3.6 8.2 -0.6 69 0 1 4
-3.6 8.6 -0.3 90 0 1 4
-3.6 9 0 139 0 1 1
-3.6 9.8 0 166 0 1 1
-3.6 10.5 0 159 0 1 1
-3.6 11.3 0 163 0 1 1
-3.6 12.1 0 158 0 1 1
-3.6 12.9 0 148 0 1 1
-3.6 13.7 0 153 0 1 1
-3.6 14.4 0.4 122 0 1 3
-3.6 14.4 0.6 65 0 1 3
-3.4 14.5 0.9 63 0 1 3
-3.3 14.5 1.1 64 0 1 3
-3.2 6.3 -1.5 91 0 1 4
-3.2 6.7 -1.5 82 0 1 4
-3.2 7.1 -1.5 82 0 1 4
-3.2 7.5 -1.5 97 0 1 4
-3.2 7.8 -1.1 73 0 1 4
-3.2 8.2 -0.6 75 0 1 4
-3.2 8.6 -0.3 68 0 1 4
-3.2 9 0 137 0 1 1
-3.2 14.1 0 56 0 1 3
-3.2 14.6 1.4 56 0 1 3
-3.1 14.1 0.2 56 0 1 3
-3.1 14.1 0.4 57 0 1 3
-3.1 14.1 0.6 54 0 1 3
-3.1 14.7 1.7 73 0 1 3
-3 14.2 0.9 64 0 1 3
-3 14.7 1.7 133 0 1 3
-3 14.8 1.7 107 0 1 3
-3 14.8 1.8 112 0 1 3
-2.9 14.3 1.2 58 0 1 3
-2.9 14.9 1.8 86 0 1 3
-2.8 3.5 0 146 0 1 1
-2.8 6.3 -1.5 118 0 1 4
-2.8 6.7 -1.5 115 0 1 4
-2.8 7.1 -1.5 101 0 1 4
-2.8 7.5 -1.5 115 0 1 4
-2.8 7.8 -1.1 100 0 1 4
-2.8 8.2 -0.6 97 0 1 4
-2.8 8.6 -0.3 112 0 1 4
-2.8 9 0 131 0 1 1
-2.8 9.8 0 159 0 1 1
-2.8 10.5 0 163 0 1 1
-2.8 11.3 0 132 0 1 1
-2.8 12.1 0 111 0 1 1
-2.8 12.9 0 150 0 1 1
-2.8 13.7 0 148 0 1 1
-2.8 14.3 1.4 56 0 1 3
-2.8 15 1.8 115 0 1 3
-2.7 13.7 0 55 0 1 3
-2.7 13.8 0.4 61 0 1 3
-2.7 13.9 0.6 54 0 1 3
-2.7 14.4 1.6 121 0 1 3
-2.7 14.5 1.7 123 0 1 3
-2.7 15.1 1.9 133 0 1 3
-2.6 13.7 0.2 57 0 1 3
-2.6 13.9 0.9 54 0 1 3
-2.6 14.6 1.7 138 0 1 3
-2.6 15.2 2 89 0 1 3
-2.6 15.4 1.9 109 0 1 3
-2.5 14 1.2 67 0 1 3
-2.5 15.3 2 102 0 1 3
-2.5 15.6 2 149 0 1 3
-2.4 6.3 -1.5 74 0 1 4
-2.4 6.7 -1.5 119 0 1 4
-2.4 7.1 -1.5 123 0 1 4
-2.4 7.5 -1.5 109 0 1 4
-2.4 7.8 -1.1 88 0 1 4
-2.4 8.2 -0.6 95 0 1 4
-2.4 8.6 -0.3 106 0 1 4
-2.4 9 0 141 0 1 1
-2.4 14.1 1.4 56 0 1 3
-2.4 14.1 1.6 93 0 1 3
-2.4 15.4 2 150 0 1 3
-2.3 13.6 0.7 58 0 1 3
-2.3 14.2 1.6 141 0 1 3
-2.3 15.5 2.1 119 0 1 3
-2.2 13.4 0.2 45 0 1 3
-2.2 13.5 0.5 62 0 1 3
-2.2 13.6 1 37 0 1 3
-2.1 13.4 0 45 0 1 3
-2.1 13.7 1.1 64 0 1 3
-2.1 13.8 1.3 55 0 1 3
-2.1 14.6 1.7 135 0 1 3
-2.1 15.6 2.1 146 0 1 3
-2 3.5 0 150 0 1 1
-2 7.1 -1.5 85 0 1 4
-2 7.5 -1.5 96 0 1 4
-2 7.8 -1.1 44 0 1 4
-2 8.2 -0.6 91 0 1 4
-2 8.6 -0.3 89 0 1 4
-2 9 0 134 0 1 1
-2 9.8 0 157 0 1 1
-2 10.5 0 156 0 1 1
-2 12.9 0 157 0 1 1
-2 13.9 1.5 141 0 1 3
-2 14.7 1.8 140 0 1 3
-2 15.7 2.2 118 0 1 3
-1.9 10.2 0 117 0 1 2
-1.9 10.2 0.1 62 0 1 2
-1.9 10.2 0.2 137 0 1 2
-1.9 10.3 0 122 0 1 2
-1.9 10.3 0.1 82 0 1 2
-1.9 10.3 0.2 136 0 1 2
-1.9 13.3 0.7 97 0 1 3
-1.9 14.8 1.9 151 0 1 3
-1.8 10.1 -0.1 121 0 1 2
-1.8 10.1 0.1 71 0 1 2
-1.8 10.2 0.1 123 0 1 2
-1.8 10.2 0.2 107 0 1 2
-1.8 10.3 0.2 137 0 1 2
-1.8 10.4 0.2 144 0 1 2
-1.8 13.2 0.3 60 0 1 3
-1.8 13.2 0.5 55 0 1 3
-1.8 13.4 0.9 99 0 1 3
-1.8 13.5 1.1 67 0 1 3
-1.8 14.3 1.7 154 0 1 3
-1.8 14.9 1.9 143 0 1 3
-1.7 10.1 0 55 0 1 2
-1.7 10.4 0.2 138 0 1 2
-1.7 13.1 0 57 0 1 3
-1.7 13.1 0.1 49 0 1 3
-1.7 13.2 0.3 44 0 1 3
-1.7 13.2 0.4 59 0 1 3
-1.7 13.3 0.7 107 0 1 3
-1.7 13.4 0.9 103 0 1 3
-1.7 13.5 1.3 78 0 1 3
-1.7 13.6 1.4 96 0 1 3
-1.7 15.3 2 143 0 1 3
-1.6 4.3 -0.4 132 0 1 4
-1.6 6.3 -1.1 78 0 1 4
-1.6 6.7 -1.1 69 0 1 4
-1.6 7.1 -1.1 64 0 1 4
-1.6 7.5 -1.1 70 0 1 4
-1.6 7.8 -0.7 77 0 1 4
-1.6 8.2 -0.4 79 0 1 4
-1.6 10.1 0.1 118 0 1 2
-1.6 10.2 0.2 135 0 1 2
-1.6 10.4 0.3 151 0 1 2
-1.6 13.1 0.1 56 0 1 3
-1.6 13.1 0.2 65 0 1 3
-1.6 13.2 0.6 85 0 1 3
-1.6 13.3 0.7 123 0 1 3
-1.6 13.5 1.1 95 0 1 3
-1.6 15.1 2 157 0 1 3
-1.6 15.4 2.1 151 0 1 3
-1.5 10.1 0 147 0 1 2
-1.5 10.1 0.1 113 0 1 2
-1.5 10.1 0.2 116 0 1 2
-1.5 10.3 0.2 141 0 1 2
-1.5 10.5 0.3 140 0 1 2
-1.5 13 0 50 0 1 3
-1.5 13.2 0.4 93 0 1 3
-1.5 13.9 1.6 146 0 1 3
-1.5 15.5 2.1 156 0 1 3
-1.4 10.1 0 82 0 1 2
-1.4 10.1 0.2 110 0 1 2
-1.4 10.2 -0.1 155 0 1 2
-1.4 10.2 0.1 123 0 1 2
-1.4 10.2 0.2 127 0 1 2
-1.4 10.2 0.3 125 0 1 2
-1.4 10.4 0.3 151 0 1 2
-1.4 15.5 2.2 113 0 1 3
-1.3 10.2 0 98 0 1 2
-1.3 10.2 0.1 125 0 1 2
-1.3 10.2 0.2 124 0 1 2
-1.3 10.2 0.3 134 0 1 2
-1.3 10.3 0 67 0 1 2
-1.3 10.3 0.3 154 0 1 2
-1.3 10.4 0.3 151 0 1 2
-1.3 10.5 0.3 151 0 1 2
-1.3 10.6 0.2 148 0 1 2
-1.3 14.3 1.7 138 0 1 3
-1.2 3.5 0 166 0 1 1
-1.2 4.3 -0.2 131 0 1 4
-1.2 5.5 -0.6 74 0 1 4
-1.2 5.9 -0.6 121 0 1 4
-1.2 6.3 -0.6 86 0 1 4
-1.2 6.6 -0.6 101 0 1 4
-1.2 7 -0.6 92 0 1 4
-1.2 7.4 -0.6 65 0 1 4
-1.2 7.8 -0.4 100 0 1 4
-1.2 8.2 -0.2 131 0 1 4
-1.2 9 0 98 0 1 1
-1.2 9.8 0 154 0 1 1
-1.2 10.3 0 129 0 1 2
-1.2 10.3 0.1 131 0 1 2
-1.2 10.3 0.2 123 0 1 2
-1.2 10.3 0.3 149 0 1 2
-1.2 10.7 0.2 150 0 1 2
-1.2 12.1 0 153 0 1 1
-1.2 12.9 0 151 0 1 1
-1.2 13.5 1.2 122 0 1 3
-1.2 13.6 1.5 116 0 1 3
-1.2 14.4 1.8 154 0 1 3
-1.1 10.4 0 145 0 1 2
-1.1 10.4 0.1 135 0 1 2
-1.1 10.4 0.2 145 0 1 2
-1.1 10.5 0 140 0 1 2
-1.1 10.5 0.1 134 0 1 2
-1.1 10.5 0.2 149 0 1 2
-1.1 10.6 0.2 143 0 1 2
-1.1 13.4 0.8 108 0 1 3
-1.1 14.5 1.8 150 0 1 3
-1 13 0 86 0 1 3
-1 13.1 0.1 86 0 1 3
-1 13.2 0.5 82 0 1 3
-1 14 1.6 156 0 1 3
-0.9 14.7 1.9 135 0 1 3
-0.9 15.2 2.1 151 0 1 3
-0.8 15 2 135 0 1 3
-0.8 15.3 2.1 132 0 1 3
-0.8 15.6 2.2 127 0 1 3
-0.7 13.5 1.2 115 0 1 3
-0.7 13.7 1.5 121 0 1 3
-0.7 14.8 1.9 153 0 1 3
-0.7 15.4 2.2 128 0 1 3
-0.6 13.1 0.1 70 0 1 3
-0.6 13.2 0.5 122 0 1 3
-0.6 13.4 0.9 80 0 1 3
-0.5 13.1 0.2 111 0 1 3
-0.5 14 1.7 132 0 1 3
-0.4 3.5 0 160 0 1 1
-0.4 4.3 0 119 0 1 1
-0.4 5 0 151 0 1 1
-0.4 5.8 0 96 0 1 1
-0.4 6.6 0 101 0 1 1
-0.4 7.4 0 120 0 1 1
-0.4 8.2 0 145 0 1 1
-0.4 9 0 152 0 1 1
-0.4 9.8 0 117 0 1 1
-0.4 10.5 0 149 0 1 1
-0.4 11.3 0 151 0 1 1
-0.4 12.1 0 149 0 1 1
-0.4 12.9 0 149 0 1 1
-0.4 14.1 1.7 152 0 1 3
-0.2 13.1 0 64 0 1 3
-0.2 13.7 1.6 103 0 1 3
-0.2 14.2 1.8 151 0 1 3
-0.2 15.2 2.1 149 0 1 3
-0.1 13.1 0.1 73 0 1 3
0 13.1 0.3 104 0 1 3
-0.1 13.3 0.6 113 0 1 3
-0.1 13.4 0.9 116 0 1 3
-0.1 13.5 1.3 111 0 1 3
0 14.4 1.8 149 0 1 3
0 14.9 2 144 0 1 3
-0.1 15.3 2.2 124 0 1 3
-0.1 15.4 2.2 120 0 1 3
0.1 14.7 2 152 0 1 3
0.2 14.5 1.9 151 0 1 3
0.3 3.5 0 88 0 1 1
0.3 4.3 0 117 0 1 1
0.3 5 0 160 0 1 1
0.3 5.8 0 159 0 1 1
0.3 6.6 0 161 0 1 1
0.3 7.4 0 159 0 1 1
0.3 8.2 0 137 0 1 1
0.3 9 0 159 0 1 1
0.3 9.8 0 157 0 1 1
0.3 10.5 0 151 0 1 1
0.3 11.3 0 161 0 1 1
0.3 12.1 0 151 0 1 1
0.3 12.9 0 149 0 1 1
0.3 13.1 0 103 0 1 3
0.3 13.1 0.1 98 0 1 3
0.3 13.7 1.6 129 0 1 3
0.4 13.2 0.2 93 0 1 3
0.4 13.2 0.4 111 0 1 3
0.4 13.3 0.7 123 0 1 3
0.4 13.4 1 122 0 1 3
0.4 13.6 1.3 112 0 1 3
0.5 13.8 1.7 146 0 1 3
0.5 15.3 2.2 134 0 1 3
0.5 15.4 2.2 153 0 1 3
0.6 13.7 1.3 116 0 1 3
0.6 13.8 1.6 146 0 1 3
0.6 15.1 2.2 124 0 1 3
0.7 13.2 0 77 0 1 3
0.7 13.3 0.1 87 0 1 3
0.7 13.4 0.7 127 0 1 3
0.7 13.5 1 131 0 1 3
0.7 14 1.7 141 0 1 3
0.7 14.9 2.1 149 0 1 3
0.8 13.3 0.3 106 0 1 3
0.8 13.9 1.7 142 0 1 3
0.9 13.7 1 137 0 1 3
0.9 13.8 1.3 140 0 1 3
0.9 13.9 1.6 130 0 1 3
0.9 14.1 1.8 152 0 1 3
0.9 14.7 2 149 0 1 3
0.9 14.8 2 156 0 1 3
1 13.5 0.6 132 0 1 3
1 14.1 1.7 153 0 1 3
1 14.4 1.9 123 0 1 3
1.1 3.5 0 154 0 1 1
1.1 4.3 0 158 0 1 1
1.1 5 0 168 0 1 1
1.1 5.8 0 146 0 1 1
1.1 6.6 0 162 0 1 1
1.1 7.4 0 140 0 1 1
1.1 8.2 0 166 0 1 1
1.1 9 0 142 0 1 1
1.1 9.8 0 142 0 1 1
1.1 10.5 0 167 0 1 1
1.1 11.3 0 160 0 1 1
1.1 12.1 0 159 0 1 1
1.1 12.9 0 157 0 1 1
1.1 13.4 0 63 0 1 3
1.1 13.4 0.2 121 0 1 3
1.1 14 1.7 153 0 1 3
1.1 14.2 1.9 112 0 1 3
1.2 13.9 1.3 134 0 1 3
1.2 14.2 1.8 121 0 1 3
1.3 13.8 0.9 126 0 1 3
1.3 14.1 1.7 135 0 1 3
1.3 14.2 1.8 129 0 1 3
1.4 13.5 0 102 0 1 3
1.4 13.6 0.5 130 0 1 3
1.4 14.1 1.7 130 0 1 3
1.5 13.5 0.1 125 0 1 3
1.5 14 1.3 137 0 1 3
1.5 14.1 1.5 132 0 1 3
1.5 14.2 1.6 111 0 1 3
1.5 14.3 1.6 128 0 1 3
1.6 13.9 0.8 121 0 1 3
1.6 14 1.1 102 0 1 3
1.6 14.2 1.5 159 0 1 3
1.6 14.3 1.5 95 0 1 3
1.7 13.6 -0.1 126 0 1 3
1.7 13.7 0.4 121 0 1 3
1.7 13.8 0.7 91 0 1 3
1.7 14 1.4 126 0 1 3
1.7 14.5 1.5 153 0 1 3
1.8 13.6 0 109 0 1 3
1.8 13.7 0.3 83 0 1 3
1.8 13.9 1 90 0 1 3
1.8 14 1.3 140 0 1 3
1.8 14.1 1.3 151 0 1 3
1.8 14.3 1.4 156 0 1 3
1.8 14.4 1.4 143 0 1 3
1.9 3.5 0 161 0 1 1
1.9 4.3 0 127 0 1 1
1.9 5 0 121 0 1 1
1.9 5.8 0 115 0 1 1
1.9 6.6 0 152 0 1 1
1.9 7.4 -0.2 116 0 1 4
1.9 9.8 -0.6 148 0 1 4
1.9 10.2 -0.6 163 0 1 4
1.9 10.6 -0.6 132 0 1 4
1.9 11 -0.4 153 0 1 4
1.9 11.3 -0.2 148 0 1 4
1.9 12.1 0 152 0 1 1
1.9 12.9 0 135 0 1 1
1.9 13.6 0.1 79 0 1 3
1.9 13.7 0 131 0 1 1
1.9 13.8 0.6 107 0 1 3
1.9 13.9 0.9 96 0 1 3
1.9 14 1.1 135 0 1 3
1.9 14.1 1.2 163 0 1 3
1.9 14.2 1.3 157 0 1 3
1.9 14.4 1.3 159 0 1 3
1.9 14.5 1.4 133 0 1 3
2 13.7 0 69 0 1 3
2 13.7 0.4 114 0 1 3
2 13.8 0.7 84 0 1 3
2 13.9 1 112 0 1 3
2 14 1 155 0 1 3
2 14.2 1.1 158 0 1 3
2 14.3 1.1 131 0 1 3
2.1 13.7 0.3 81 0 1 3
2.1 13.8 0.5 94 0 1 3
2.1 13.9 0.8 142 0 1 3
2.1 14 0.9 151 0 1 3
2.1 14.1 0.9 125 0 1 3
2.1 14.4 1 110 0 1 3
2.2 13.7 0.4 95 0 1 3
2.2 13.8 0.1 43 0 1 3
2.2 13.8 0.7 140 0 1 3
2.2 13.9 0 33 0 1 3
2.2 13.9 0.7 123 0 1 3
2.3 11 -0.7 110 0 1 4
2.3 11.3 -0.4 127 0 1 4
2.3 13.8 0.2 63 0 1 3
2.3 13.8 0.5 154 0 1 3
2.3 14 0.6 126 0 1 3
2.4 13.9 0.1 53 0 1 3
2.4 13.9 0.4 102 0 1 3
2.5 14 0 101 0 1 3
2.5 14 0.2 107 0 1 3
2.5 14.2 0.3 70 0 1 3
2.6 14.1 0.1 145 0 1 3
2.7 3.5 0 158 0 1 1
2.7 4.3 0 119 0 1 1
2.7 5 0 167 0 1 1
2.7 5.8 0 171 0 1 1
2.7 6.6 0 97 0 1 1
2.7 11 -1.1 115 0 1 4
2.7 11.4 -0.6 119 0 1 4
2.7 11.7 -0.3 137 0 1 4
2.7 12.1 0 162 0 1 1
2.7 12.9 0 156 0 1 1
2.7 13.7 0 155 0 1 1
2.7 14.1 -0.1 151 0 1 3
2.7 14.5 0 110 0 1 1
3.1 11 -1.1 76 0 1 4
3.1 11.4 -0.6 88 0 1 4
3.1 11.7 -0.3 110 0 1 4
3.1 12.1 0 144 0 1 1
3.5 3.5 0 158 0 1 1
3.5 4.3 0 164 0 1 1
3.5 5 0 148 0 1 1
3.5 5.8 0 124 0 1 1
3.5 6.6 0 108 0 1 1
3.5 11 -1.1 100 0 1 4
3.5 11.4 -0.6 102 0 1 4
3.5 11.7 -0.3 121 0 1 4
3.5 12.1 0 159 0 1 1
3.5 12.9 0 152 0 1 1
3.5 13.7 0 139 0 1 1
3.5 14.5 0 150 0 1 1
3.5 15.2 0 150 0 1 1
3.5 16 0 148 0 1 1
3.5 16.8 0 161 0 1 1
3.5 17.6 0 157 0 1 1
3.5 18.4 0 146 0 1 1
3.5 19.2 0 146 0 1 1
3.5 20 0 97 0 1 1
3.9 11 -1.1 85 0 1 4
3.9 11.4 -0.6 94 0 1 4
3.9 11.7 -0.3 125 0 1 4
3.9 12.1 0 165 0 1 1
4.3 4.3 0 177 0 1 1
4.3 5 0 160 0 1 1
4.3 5.8 0 142 0 1 1
4.3 6.6 0 97 0 1 1
4.3 11 -1.1 83 0 1 4
4.3 11.4 -0.6 109 0 1 4
4.3 11.7 -0.3 123 0 1 4
4.3 12.1 0 161 0 1 1
4.3 12.9 0 159 0 1 1
4.3 13.7 0 140 0 1 1
4.3 14.5 0 155 0 1 1
4.3 15.2 0 145 0 1 1
4.3 16 0 152 0 1 1
4.3 16.8 0 152 0 1 1
4.3 17.6 0 145 0 1 1
4.3 18.4 0 151 0 1 1
4.3 19.2 0 145 0 1 1
4.3 20 0 99 0 1 1
4.7 11 -1.1 93 0 1 4
4.7 11.4 -0.6 114 0 1 4
4.7 11.7 -0.3 136 0 1 4
4.7 12.1 0 155 0 1 1
5 5 0 169 0 1 1
5 5.8 0 155 0 1 1
5 6.6 0 131 0 1 1
5 11 -1.1 83 0 1 4
5 11.4 -0.6 96 0 1 4
5 11.7 -0.3 104 0 1 4
5 12.1 0 145 0 1 1
5 12.9 0 156 0 1 1
5 13.7 0 122 0 1 1
5 14.5 0 155 0 1 1
5 15.2 0 155 0 1 1
5 16 0 157 0 1 1
5 16.8 0 155 0 1 1
5 17.6 0 141 0 1 1
5 18.4 0 153 0 1 1
5 19.2 0 157 0 1 1
5 20 0 100 0 1 1
5.4 10.2 -1.1 57 0 1 4
5.4 10.6 -1.1 62 0 1 4
5.4 11 -0.7 56 0 1 4
5.4 11.3 -0.4 81 0 1 4
5.4 11.7 -0.2 95 0 1 4
5.4 12.1 0 149 0 1 1
5.8 5.8 0 174 0 1 1
5.8 6.6 0 132 0 1 1
5.8 7.4 -0.2 144 0 1 4
5.8 7.8 -0.4 166 0 1 4
5.8 8.6 -0.6 126 0 1 4
5.8 9 -0.6 125 0 1 4
5.8 9.4 -0.6 118 0 1 4
5.8 9.8 -0.6 88 0 1 4
5.8 10.2 -0.6 122 0 1 4
5.8 10.6 -0.6 113 0 1 4
5.8 11 -0.4 72 0 1 4
5.8 11.3 -0.2 110 0 1 4
5.8 11.7 -0.1 133 0 1 4
5.8 12.1 0 142 0 1 1
5.8 12.9 0 147 0 1 1
5.8 13.7 0 147 0 1 1
5.8 14.5 0 153 0 1 1
5.8 15.2 0 125 0 1 1
5.8 16 0 156 0 1 1
5.8 16.8 0 147 0 1 1
5.8 17.6 0 149 0 1 1
5.8 18.4 0 121 0 1 1
5.8 19.2 0 142 0 1 1
5.8 20 0 98 0 1 1
6.5 8.1 0 58 0 1 2
6.5 8.1 0.2 61 0 1 2
6.5 8.2 -0.1 62 0 1 2
6.5 8.2 0.1 60 0 1 2
6.5 8.2 0.3 102 0 1 2
6.5 8.3 0 61 0 1 2
6.5 8.3 0.1 62 0 1 2
6.5 8.3 0.3 108 0 1 2
6.5 8.4 0 60 0 1 2
6.6 6.6 0 155 0 1 1
6.6 7.4 0 134 0 1 1
6.6 8 0.1 50 0 1 2
6.6 8 0.2 94 0 1 2
6.6 8.1 0 53 0 1 2
6.6 8.1 0.1 50 0 1 2
6.6 8.1 0.2 108 0 1 2
6.6 8.2 0.3 117 0 1 2
6.6 8.3 0.3 63 0 1 2
6.6 8.4 -0.1 62 0 1 2
6.6 8.4 0.1 62 0 1 2
6.6 8.4 0.2 62 0 1 2
6.6 8.4 0.3 99 0 1 2
6.6 8.5 -0.1 62 0 1 2
6.6 8.5 0.2 60 0 1 2
6.6 8.5 0.3 91 0 1 2
6.6 8.6 0.1 60 0 1 2
6.6 8.6 0.2 127 0 1 2
6.6 8.6 0.3 133 0 1 2
6.6 8.7 0 124 0 1 2
6.6 8.7 0.1 149 0 1 2
6.6 9 0 132 0 1 1
6.6 9.8 0 164 0 1 1
6.6 10.5 0 143 0 1 1
6.6 11.3 0 140 0 1 1
6.6 12.1 0 159 0 1 1
6.6 12.9 0 130 0 1 1
6.6 13.7 0 151 0 1 1
6.6 14.5 0 147 0 1 1
6.6 15.2 0 150 0 1 1
6.6 16 0 150 0 1 1
6.6 16.8 0 150 0 1 1
6.6 17.6 0 153 0 1 1
6.6 18.4 0 145 0 1 1
6.6 19.2 0 154 0 1 1
6.6 20 0 96 0 1 1
6.7 8 0 53 0 1 2
6.7 8 0.1 46 0 1 2
6.7 8 0.2 52 0 1 2
6.7 8.2 0.3 126 0 1 2
6.7 8.3 0.3 120 0 1 2
6.7 8.4 0.3 124 0 1 2
6.7 8.7 0.1 135 0 1 2
6.7 8.8 0 58 0 1 2
6.8 7.9 0.1 56 0 1 2
6.8 7.9 0.2 50 0 1 2
6.8 8 0.1 56 0 1 2
6.8 8 0.2 55 0 1 2
6.8 8.2 0.3 123 0 1 2
6.8 8.4 0.3 122 0 1 2
6.9 7.9 0.1 54 0 1 2
6.9 7.9 0.2 142 0 1 2
6.9 8.1 0.3 139 0 1 2
6.9 8.3 0.3 133 0 1 2
7 7.9 0 47 0 1 2
7 7.9 0.1 119 0 1 2
7.1 8 0 130 0 1 2
7.4 7.4 0 169 0 1 1
7.4 8.2 0 170 0 1 1
7.4 9.8 0 162 0 1 1
7.4 10.5 0 158 0 1 1
7.4 11.3 0 145 0 1 1
7.4 12.1 0 140 0 1 1
7.4 12.9 0 157 0 1 1
7.4 13.7 0 120 0 1 1
7.4 14.5 0 147 0 1 1
7.4 15.2 0 158 0 1 1
7.4 16 0 132 0 1 1
7.4 16.8 0 151 0 1 1
7.4 17.6 0 148 0 1 1
7.4 18.4 0 149 0 1 1
7.4 19.2 0 142 0 1 1
7.4 20 0 93 0 1 1
8.2 8.2 0 151 0 1 1
8.2 9 0 154 0 1 1
8.2 10.5 0 162 0 1 1
8.2 11.3 0 143 0 1 1
8.2 12.1 0 150 0 1 1
8.2 12.9 0 145 0 1 1
8.2 13.7 0 165 0 1 1
8.2 14.5 0 146 0 1 1
8.2 15.2 0 121 0 1 1
8.2 16 0 134 0 1 1
8.2 16.8 0 134 0 1 1
8.2 17.6 0 141 0 1 1
8.2 18.4 0 134 0 1 1
8.2 19.2 0 152 0 1 1
8.2 20 0 99 0 1 1
9 9 0 153 0 1 1
9 9.8 0 162 0 1 1
9 10.5 0 159 0 1 1
9 11.3 0 146 0 1 1
9 12.1 0 153 0 1 1
9 12.9 0 155 0 1 1
9 13.7 0 148 0 1 1
9 14.5 0 150 0 1 1
9 15.2 0 146 0 1 1
9 16 0 135 0 1 1
9 16.8 0 153 0 1 1
9 17.6 0 146 0 1 1
9 18.4 0 161 0 1 1
9 19.2 0 157 0 1 1
9 20 0 102 0 1 1
9.8 9.8 0 162 0 1 1
9.8 10.5 0 158 0 1 1
9.8 11.3 0 162 0 1 1
9.8 12.1 0 153 0 1 1
9.8 12.9 0 157 0 1 1
9.8 13.7 0 155 0 1 1
9.8 14.5 0 159 0 1 1
9.8 15.2 0 158 0 1 1
9.8 16 0 160 0 1 1
9.8 16.8 0 156 0 1 1
9.8 17.6 0 143 0 1 1
9.8 18.4 0 154 0 1 1
9.8 19.2 0 149 0 1 1
9.8 20 0 100 0 1 1
10.5 10.5 0 164 0 1 1
10.5 11.3 0 147 0 1 1
10.5 12.1 0 136 0 1 1
10.5 12.9 0 143 0 1 1
10.5 13.7 0 144 0 1 1
10.5 14.5 0 127 0 1 1
10.5 15.2 0 130 0 1 1
10.5 16 0 150 0 1 1
10.5 16.8 0 154 0 1 1
10.5 17.6 0 150 0 1 1
10.5 18.4 0 144 0 1 1
10.5 19.2 0 140 0 1 1
10.5 20 0 93 0 1 1
11.3 11.3 0 165 0 1 1
11.3 12.1 0 148 0 1 1
11.3 12.9 0 150 0 1 1
11.3 13.7 0 136 0 1 1
11.3 14.5 0 160 0 1 1
11.3 15.2 0 158 0 1 1
11.3 16 0 144 0 1 1
11.3 16.8 0 150 0 1 1
11.3 17.6 0 146 0 1 1
11.3 18.4 0 157 0 1 1
11.3 19.2 0 149 0 1 1
11.3 20 0 89 0 1 1
12.1 12.1 0 162 0 1 1
12.1 12.9 0 161 0 1 1
12.1 13.7 0 157 0 1 1
12.1 14.5 0 157 0 1 1
12.1 15.2 0 151 0 1 1
12.1 16 0 146 0 1 1
12.1 16.8 0 146 0 1 1
12.1 17.6 0 155 0 1 1
12.1 18.4 0 160 0 1 1
12.1 19.2 0 155 0 1 1
12.1 20 0 101 0 1 1
12.9 12.9 0 146 0 1 1
12.9 13.7 0 147 0 1 1
12.9 14.5 0 160 0 1 1
12.9 15.2 0 141 0 1 1
12.9 16 0 135 0 1 1
12.9 16.8 0 152 0 1 1
12.9 17.6 0 153 0 1 1
12.9 18.4 0 149 0 1 1
12.9 19.2 0 156 0 1 1
12.9 20 0 100 0 1 1
13.7 13.7 0 153 0 1 1
13.7 14.5 0 144 0 1 1
13.7 15.2 0 145 0 1 1
13.7 16 0 160 0 1 1
13.7 16.8 0 157 0 1 1
13.7 17.6 0 158 0 1 1
13.7 18.4 0 142 0 1 1
13.7 19.2 0 146 0 1 1
13.7 20 0 93 0 1 1
14.5 14.5 0 151 0 1 1
14.5 15.2 0 158 0 1 1
14.5 16 0 153 0 1 1
14.5 16.8 0 147 0 1 1
14.5 17.6 0 143 0 1 1
14.5 18.4 0 157 0 1 1
14.5 19.2 0 144 0 1 1
14.5 20 0 97 0 1 1
15.2 15.2 0 154 0 1 1
15.2 16 0 154 0 1 1
15.2 16.8 0 151 0 1 1
15.2 17.6 0 150 0 1 1
15.2 18.4 0 148 0 1 1
15.2 19.2 0 142 0 1 1
15.2 20 0 86 0 1 1
16 16 0 160 0 1 1
16 16.8 0 159 0 1 1
16 17.6 0 163 0 1 1
16 18.4 0 160 0 1 1
16 19.2 0 157 0 1 1
16 20 0 101 0 1 1
16.8 16.8 0 162 0 1 1
16.8 17.6 0 155 0 1 1
16.8 18.4 0 154 0 1 1
16.8 19.2 0 153 0 1 1
16.8 20 0 94 0 1 1
17.6 17.6 0 157 0 1 1
17.6 18.4 0 155 0 1 1
17.6 19.2 0 154 0 1 1
17.6 20 0 97 0 1 1
18.4 18.4 0 157 0 1 1
18.4 19.2 0 155 0 1 1
18.4 20 0 98 0 1 1
19.2 19.2 0 157 0 1 1
19.2 20 0 98 0 1 1
20 20 0 97 0 1 1
