-19.3 20 0 94 0 1 4
-18.5 19.2 0 144 0 1 4
-18.5 20 0 94 0 1 4
-17.7 18.4 0 145 0 1 4
-17.7 19.2 0 142 0 1 4
-17.7 20 0 96 0 1 4
-16.9 17.6 0 149 0 1 4
-16.9 18.4 0 149 0 1 4
-16.9 19.2 0 151 0 1 4
-16.1 16 0 148 0 1 4
-16.1 16.8 0 146 0 1 4
-16.1 17.6 0 146 0 1 4
-16.1 18.4 0 147 0 1 4
-15.3 15.2 0 142 0 1 4
-15.3 16 0 147 0 1 4
-15.3 16.8 0 147 0 1 2
-15.3 17.6 0 146 0 1 2
-14.6 14.5 0 144 0 1 2
-14.6 15.2 0 149 0 1 2
-14.6 16 0 149 0 1 2
-14.6 16.8 0 148 0 1 2
-13.8 13.7 0 155 0 1 2
-13.8 14.5 0 149 0 1 2
-13.8 15.2 0 149 0 1 2
-13 12.9 0 156 0 1 2
-13 13.7 0 114 0 1 2
-13 14.5 0 115 0 1 2
-12.2 12.1 0 143 0 1 2
-12.2 12.9 0 119 0 1 2
-12.2 13.7 0 69 0 1 2
-11.8 13.5 0 59 0 1 1
-11.8 13.7 0.3 60 0 1 1
-11.8 13.8 0.5 64 0 1 4
-11.6 13.5 0.5 135 0 1 1
-11.5 13.7 0.8 54 0 1 1
-11.5 13.8 1.1 58 0 1 1
-11.4 11.3 0 158 0 1 2
-11.4 12.1 0 143 0 1 2
-11.4 12.9 0 90 0 1 2
-11.3 13.6 1.4 65 0 1 4
-11.2 13.8 1.7 63 0 1 1
-11.2 13.9 2 60 0 1 4
-11 13.1 0.6 53 0 1 1
-11 13.8 2.3 57 0 1 1
-10.9 13.9 2.6 57 0 1 1
-10.7 13.3 1.4 55 0 1 1
-10.7 13.9 3.2 67 0 1 4
-10.6 10.5 0 155 0 1 2
-10.6 11.3 0 140 0 1 2
-10.6 12.1 0 118 0 1 2
-10.4 12.7 0.4 56 0 1 1
-10.4 13.4 2.3 53 0 1 1
-10.1 12.9 1.5 57 0 1 1
-10.1 13.5 3.2 68 0 1 1
-9.9 9.8 0 158 0 1 2
-9.9 10.5 0 146 0 1 2
-9.9 11.3 0 144 0 1 2
-9.9 12.1 0 71 0 1 2
-9.8 13 2.3 60 0 1 1
-9.5 12.4 1.3 48 0 1 1
-9.5 13.1 3.2 69 0 1 4
-9.2 12.6 2.4 59 0 1 1
-9.1 9 0 150 0 1 2
-9.1 9.8 0 151 0 1 2
-9.1 10.5 0 156 0 1 2
-9.1 11.3 0 101 0 1 2
-8.9 11.7 0.4 53 0 1 1
-8.9 12 1.1 59 0 1 1
-8.9 12.8 3.2 64 0 1 1
-8.6 12.2 2.2 41 0 1 1
-8.3 8.2 0 156 0 1 2
-8.3 9 0 156 0 1 2
-8.3 9.8 0 155 0 1 2
-8.3 10.5 0 96 0 1 2
-8.3 12.4 3.2 77 0 1 4
-8 11.7 2 57 0 1 1
-8 12.4 3.3 107 0 1 1
-7.9 12.2 3.2 152 0 1 1
-7.8 12 3.1 151 0 1 1
-7.8 12.4 3.3 140 0 1 1
-7.7 11.9 3.1 62 0 1 4
-7.7 12.2 3.2 157 0 1 1
-7.5 7.4 0 155 0 1 2
-7.5 8.2 0 143 0 1 2
-7.5 9 0 140 0 1 2
-7.5 9.8 0 131 0 1 2
-7.5 10.5 0 129 0 1 2
-7.5 12 3.1 152 0 1 1
-7.5 12.4 3.3 125 0 1 1
-7.4 11 1.1 62 0 1 1
-7.4 11.3 1.8 46 0 1 1
-7.4 11.8 3.1 146 0 1 1
-7.4 12.2 3.2 155 0 1 1
-7.3 10.7 0.4 53 0 1 1
-7.3 12 3.1 150 0 1 1
-7.2 11.5 2.9 46 0 1 1
-7.2 11.6 3 83 0 1 1
-7.2 11.8 3.1 156 0 1 1
-7.2 12.4 3.3 150 0 1 4
-7.1 11.5 2.9 56 0 1 1
-7.1 12.2 3.2 163 0 1 1
-7 11.6 3 138 0 1 1
-7 12 3.1 167 0 1 1
-6.9 11.4 2.9 149 0 1 1
-6.9 11.8 3.1 166 0 1 1
-6.8 11.6 3 155 0 1 1
-6.8 13.3 3.3 104 0 1 1
-6.7 6.6 0 156 0 1 2
-6.7 7.4 0 96 0 1 2
-6.7 8.2 0 101 0 1 2
-6.7 9 0 114 0 1 2
-6.7 9.8 0 133 0 1 2
-6.7 11.2 2.8 113 0 1 1
-6.7 13.1 3.2 163 0 1 1
-6.6 11.1 2.8 68 0 1 1
-6.6 11.4 2.9 128 0 1 4
-6.6 13 3.1 169 0 1 1
-6.5 11 2.7 70 0 1 1
-6.5 11.2 2.9 154 0 1 1
-6.5 12.8 3.1 161 0 1 1
-6.5 14.3 3.3 148 0 1 1
-6.4 14.1 3.2 151 0 1 1
-6.3 11 2.8 144 0 1 4
-6.3 13.9 3.1 157 0 1 1
-6.2 10.8 2.7 157 0 1 1
-6.2 12.9 3 171 0 1 1
-6.1 10.7 2.6 128 0 1 1
-6.1 10.8 2.7 114 0 1 1
-6.1 15.2 3.3 147 0 1 1
-6 10.6 2.6 130 0 1 1
-6 12.6 2.9 158 0 1 1
-6 15.1 3.2 163 0 1 1
-5.9 5.8 0 149 0 1 2
-5.9 6.6 0 124 0 1 2
-5.9 7.4 0 108 0 1 2
-5.9 8.2 0 112 0 1 2
-5.9 9 0 107 0 1 2
-5.9 10 1.1 50 0 1 1
-5.9 10.3 1.8 65 0 1 1
-5.9 10.4 2.1 103 0 1 1
-5.9 10.6 2.5 129 0 1 4
-5.9 12.4 2.8 157 0 1 1
-5.9 14.1 3 143 0 1 1
-5.8 9.8 0.4 64 0 1 1
-5.8 9.8 0.7 63 0 1 1
-5.8 10.1 1.4 58 0 1 1
-5.8 10.2 1.7 110 0 1 1
-5.7 9.6 0 106 0 1 4
-5.7 9.6 0.3 65 0 1 4
-5.7 9.7 0.5 69 0 1 1
-5.7 9.9 1 42 0 1 1
-5.7 10 1.3 143 0 1 1
-5.7 12.2 2.7 136 0 1 1
-5.7 16.2 3.3 155 0 1 4
-5.6 9.8 0.8 80 0 1 1
-5.6 11.2 2.5 161 0 1 1
-5.6 11.2 2.6 146 0 1 1
-5.6 12 2.6 157 0 1 1
-5.6 15.2 3.1 160 0 1 1
-5.5 11.1 2.5 161 0 1 1
-5.5 14.2 2.9 169 0 1 1
-5.4 11 2.4 156 0 1 1
-5.4 13.9 2.8 142 0 1 1
-5.4 16.4 3.1 152 0 1 1
-5.3 10.8 1.7 152 0 1 1
-5.3 11 2.2 135 0 1 1
-5.3 15.4 3 162 0 1 1
-5.2 10.6 1.3 156 0 1 1
-5.2 13.6 2.7 161 0 1 1
-5.1 5 -0.3 150 0 1 2
-5.1 5.4 -0.4 137 0 1 2
-5.1 5.8 -0.6 121 0 1 2
-5.1 6.2 -0.6 107 0 1 2
-5.1 6.6 -0.6 144 0 1 2
-5.1 7 -0.4 121 0 1 2
-5.1 7.4 -0.3 147 0 1 2
-5.1 8.2 0 133 0 1 2
-5.1 9 0 152 0 1 2
-5.1 9.8 0 137 0 1 2
-5.1 10.3 0 106 0 1 1
-5.1 10.3 0.9 136 0 1 4
-5.1 11.6 2.4 165 0 1 1
-5.1 13.4 2.6 166 0 1 1
-5 10.3 0.3 131 0 1 1
-5 10.4 0.5 115 0 1 1
-5 11.5 2.3 169 0 1 1
-5 11.6 2.4 151 0 1 1
-5 12.4 2.5 167 0 1 1
-5 16.5 3 104 0 1 1
-4.9 13.2 2.6 148 0 1 4
-4.9 15.5 2.8 162 0 1 1
-4.8 11.4 2.1 131 0 1 1
-4.7 5 -0.4 159 0 1 2
-4.7 6.2 -0.9 85 0 1 4
-4.7 6.6 -0.9 118 0 1 1
-4.7 7 -0.6 107 0 1 1
-4.7 7.4 -0.4 154 0 1 2
-4.7 11.1 1.4 155 0 1 1
-4.7 11.3 1.8 154 0 1 1
-4.7 15.2 2.8 161 0 1 1
-4.6 10.9 0.9 123 0 1 1
-4.6 14.9 2.7 164 0 1 1
-4.6 16.7 2.9 141 0 1 1
-4.5 11 0.6 143 0 1 1
-4.5 12 2.3 148 0 1 4
-4.5 12.8 2.4 158 0 1 1
-4.4 4.3 0 154 0 1 2
-4.4 8.2 0 153 0 1 2
-4.4 9 0 149 0 1 2
-4.4 9.8 0 160 0 1 2
-4.4 10.5 0 149 0 1 2
-4.4 11 0 108 0 1 1
-4.4 11.1 0.3 133 0 1 1
-4.4 11.9 2 134 0 1 1
-4.4 13.6 2.4 168 0 1 1
-4.4 14.5 2.6 162 0 1 4
-4.3 7 -0.9 111 0 1 1
-4.3 7.4 -0.6 142 0 1 2
-4.3 11.8 1.7 158 0 1 1
-4.3 14.3 2.5 146 0 1 4
-4.2 16.8 2.8 108 0 1 1
-4.1 11.5 1 146 0 1 1
-4.1 11.7 1.4 108 0 1 1
-4.1 16.5 2.7 149 0 1 1
-4.1 16.6 2.6 146 0 1 1
-4 7 -0.9 78 0 1 1
-4 7.4 -0.6 116 0 1 2
-4 11.6 0.6 145 0 1 1
-4 12.4 2.2 141 0 1 4
-4 16.2 2.6 139 0 1 1
-4 16.7 2.6 148 0 1 1
-4 16.8 2.5 143 0 1 1
-4 17.4 2.3 108 0 1 1
-3.9 12.3 1.9 136 0 1 1
-3.9 13.2 2.2 158 0 1 1
-3.9 17.6 2.1 124 0 1 1
-3.8 11.6 0.3 106 0 1 1
-3.8 12.2 1.6 152 0 1 1
-3.8 14 2.3 155 0 1 4
-3.8 15.8 2.5 149 0 1 4
-3.8 15.9 2.4 153 0 1 4
-3.8 16.8 2 150 0 1 1
-3.8 17.4 1.9 151 0 1 1
-3.8 17.7 1.9 96 0 1 4
-3.7 10.1 0 58 0 0 2
-3.7 10.2 0 141 0 0 2
-3.7 10.2 0.1 130 0 0 2
-3.7 10.2 0.2 111 0 0 2
-3.7 10.3 0 113 0 0 2
-3.7 10.3 0.1 156 0 0 2
-3.7 10.3 0.2 131 0 0 2
-3.7 12.1 1.3 147 0 1 1
-3.7 12.5 1.6 137 0 1 4
-3.7 13.2 1.7 160 0 1 1
-3.7 14.7 2.3 140 0 1 1
-3.7 15.5 2.4 152 0 1 4
-3.7 16.4 2 150 0 1 1
-3.7 17.5 1.7 150 0 1 1
-3.7 17.9 1.7 84 0 1 1
-3.6 3.5 0 140 0 1 2
-3.6 4.3 0 149 0 1 2
-3.6 7 -0.9 100 0 1 1
-3.6 7.4 -0.6 128 0 1 2
-3.6 8.2 0 115 0 1 2
-3.6 9 0 166 0 1 2
-3.6 9.8 0 166 0 1 2
-3.6 10 0 56 0 0 2
-3.6 10 0.1 63 0 0 2
-3.6 10.1 0 58 0 0 2
-3.6 10.1 0.1 78 0 0 2
-3.6 10.1 0.2 127 0 0 2
-3.6 10.3 0.2 136 0 0 2
-3.6 10.4 0.2 133 0 0 2
-3.6 12.1 1 145 0 1 1
-3.6 12.4 1.3 149 0 1 1
-3.6 14 1.8 160 0 1 1
-3.6 17.7 1.5 149 0 1 1
-3.6 17.9 1.3 149 0 1 1
-3.6 18.1 1.5 117 0 1 4
-3.5 10 0 58 0 0 2
-3.5 10 0.1 114 0 0 2
-3.5 10.4 0.2 141 0 0 2
-3.5 12.3 1.1 152 0 1 1
-3.5 12.5 1.1 169 0 1 1
-3.5 13.2 1.2 150 0 1 1
-3.5 14.7 1.9 152 0 1 1
-3.5 15.5 1.9 154 0 1 1
-3.5 16.4 1.5 150 0 1 1
-3.5 17.7 1 145 0 1 1
-3.5 18 1 140 0 1 1
-3.5 18.2 1.2 86 0 1 1
-3.4 10 0 55 0 0 2
-3.4 10 0.1 104 0 0 2
-3.4 10.1 0.2 121 0 0 2
-3.4 12.1 0.7 123 0 1 1
-3.4 12.2 0.8 150 0 1 1
-3.4 12.4 0.8 131 0 1 1
-3.4 14 1.3 145 0 1 4
-3.4 16 1.5 149 0 1 1
-3.4 17.8 0.8 156 0 1 1
-3.4 18.2 0.8 129 0 1 1
-3.4 18.4 1 119 0 1 1
-3.3 10 0 59 0 0 2
-3.3 10 0.1 116 0 0 2
-3.3 10.1 0.2 119 0 0 2
-3.3 10.2 0.2 121 0 0 2
-3.3 10.3 0.3 142 0 0 2
-3.3 10.4 0.3 139 0 0 2
-3.3 12.2 0.4 138 0 1 1
-3.3 12.3 0.4 131 0 1 1
-3.3 12.3 0.5 125 0 1 1
-3.3 12.6 0.5 141 0 1 1
-3.3 14.7 1.4 156 0 1 1
-3.3 15.5 1.4 153 0 1 4
-3.3 17.1 0.7 160 0 1 1
-3.3 17.8 0.4 137 0 1 1
-3.3 18 0.6 155 0 1 1
-3.3 18.3 0.5 113 0 1 4
-3.3 18.5 0.7 90 0 1 1
-3.2 7 -0.9 70 0 1 1
-3.2 7.4 -0.6 124 0 1 2
-3.2 10 0 63 0 0 2
-3.2 10 0.1 111 0 0 2
-3.2 10.1 0 121 0 0 2
-3.2 10.1 0.2 114 0 0 2
-3.2 10.5 0.3 135 0 0 2
-3.2 12.3 0 118 0 1 1
-3.2 12.3 0.1 124 0 1 1
-3.2 12.4 0.2 118 0 1 1
-3.2 12.5 0.3 150 0 1 1
-3.2 13.3 0.7 126 0 1 1
-3.2 14 0.8 161 0 1 1
-3.2 16 1 143 0 1 1
-3.2 16.5 0.9 158 0 1 1
-3.2 17.7 0 143 0 1 1
-3.2 17.9 0.2 118 0 1 1
-3.2 18.1 0.3 132 0 1 1
-3.1 10.1 -0.1 106 0 0 2
-3.1 10.1 0.1 123 0 0 2
-3.1 10.1 0.2 118 0 0 2
-3.1 10.2 0.2 118 0 0 2
-3.1 10.2 0.3 123 0 0 2
-3.1 10.4 0.3 145 0 0 2
-3.1 14.8 0.9 149 0 1 4
-3.1 15.5 1 142 0 1 1
-3.1 17.2 0.1 141 0 1 1
-3 10.2 -0.1 136 0 0 2
-3 10.2 0.1 124 0 0 2
-3 10.2 0.3 133 0 0 2
-3 10.3 0.3 149 0 0 2
-3 10.5 0.3 154 0 0 2
-3 10.6 0.3 132 0 0 2
-3 12.6 0 138 0 1 1
-3 13.4 0.1 144 0 1 1
-3 16.5 0 137 0 1 1
-3 16.6 0.2 137 0 1 1
-2.9 10.2 0 46 0 0 2
-2.9 10.3 0 61 0 0 2
-2.9 10.3 0.1 127 0 0 2
-2.9 10.3 0.2 122 0 0 2
-2.9 10.3 0.3 151 0 0 2
-2.9 10.8 0.2 147 0 0 2
-2.9 14 0 139 0 1 1
-2.9 14.1 0.2 151 0 1 1
-2.9 14.6 0 127 0 1 1
-2.9 14.7 0.2 128 0 1 1
-2.9 14.8 0.4 143 0 1 1
-2.9 15.5 0.5 148 0 1 4
-2.9 15.9 -0.1 151 0 1 1
-2.9 16 0.2 137 0 1 1
-2.9 16.1 0.4 141 0 1 1
-2.8 3.5 0 153 0 1 2
-2.8 4.3 0 162 0 1 2
-2.8 7 -0.9 90 0 1 1
-2.8 7.4 -0.6 139 0 1 2
-2.8 8.2 0 152 0 1 2
-2.8 9 0 157 0 1 2
-2.8 9.8 0 159 0 1 2
-2.8 10.3 -0.1 165 0 0 2
-2.8 10.3 0.1 131 0 0 2
-2.8 10.3 0.3 150 0 0 2
-2.8 10.4 0.1 139 0 0 2
-2.8 10.4 0.2 141 0 0 2
-2.8 10.4 0.3 149 0 0 2
-2.8 10.5 0 140 0 0 2
-2.8 10.5 0.1 132 0 0 2
-2.8 10.5 0.2 136 0 0 2
-2.8 10.6 0.2 137 0 0 2
-2.8 11.3 0 132 0 1 2
-2.8 12.1 0 111 0 1 2
-2.8 12.9 0 150 0 1 2
-2.8 13.7 0 148 0 1 2
-2.8 14.5 0 147 0 1 2
-2.8 15.2 0 158 0 1 2
-2.8 15.4 0.1 143 0 1 1
-2.8 15.4 0.3 145 0 1 1
-2.8 16 0 151 0 1 2
-2.8 16.8 0 149 0 1 2
-2.8 17.6 0 151 0 1 2
-2.8 18.4 0 151 0 1 2
-2.8 19.2 0 143 0 1 2
-2.8 20 0 97 0 1 4
-2.4 7 -0.9 114 0 1 1
-2.4 7.4 -0.6 133 0 1 2
-2 3.5 0 159 0 1 2
-2 4.3 0 166 0 1 2
-2 7 -0.9 61 0 1 1
-2 7.4 -0.6 134 0 1 2
-2 8.2 0 142 0 1 2
-2 9 0 151 0 1 2
-2 12.1 0 150 0 1 2
-2 12.9 0 157 0 1 2
-2 13.7 0 157 0 1 2
-2 14.5 0 149 0 1 2
-2 15.2 0 155 0 1 2
-2 16 0 149 0 1 2
-2 16.8 0 151 0 1 2
-2 17.6 0 149 0 1 2
-2 18.4 0 152 0 1 2
-2 19.2 0 140 0 1 2
-2 20 0 96 0 1 4
-1.9 8.8 0.2 56 0 0 2
-1.9 8.8 0.3 57 0 0 2
-1.9 8.9 0.1 126 0 0 2
-1.9 8.9 0.2 126 0 0 2
-1.9 8.9 0.3 117 0 0 2
-1.9 9 0.1 124 0 1 2
-1.9 9 0.2 152 0 1 2
-1.8 8.7 0.2 57 0 0 2
-1.8 8.7 0.3 103 0 0 2
-1.8 8.8 0.1 58 0 0 2
-1.8 8.8 0.2 58 0 0 2
-1.8 8.8 0.3 90 0 1 2
-1.8 8.9 0.1 58 0 0 2
-1.8 8.9 0.3 138 0 0 2
-1.8 9 0.3 145 0 0 2
-1.8 9.2 0 124 0 0 2
-1.7 8.7 0.2 55 0 0 2
-1.7 8.8 0.1 50 0 1 2
-1.7 9 0.3 129 0 1 2
-1.7 9.1 0.3 121 0 1 2
-1.7 9.3 0 98 0 0 2
-1.6 5 -0.4 139 0 1 2
-1.6 6.6 -0.9 78 0 1 1
-1.6 7 -0.6 65 0 1 1
-1.6 7.4 -0.4 139 0 1 2
-1.6 8.7 0.2 78 0 1 2
-1.6 8.7 0.3 97 0 1 2
-1.6 8.8 0.1 56 0 0 2
-1.6 8.8 0.4 105 0 0 2
-1.6 9 0.4 148 0 1 2
-1.5 8.7 0.2 56 0 0 2
-1.5 8.7 0.3 94 0 1 2
-1.5 8.8 0.1 62 0 0 2
-1.5 8.8 0.2 66 0 1 2
-1.5 8.9 0.4 133 0 0 2
-1.5 9.1 0.5 149 0 0 2
-1.4 8.7 0.4 94 0 0 2
-1.4 8.8 0.2 87 0 1 2
-1.4 8.8 0.3 89 0 0 2
-1.4 8.8 0.4 90 0 0 2
-1.4 8.8 0.5 97 0 0 2
-1.4 8.9 0.2 63 0 0 2
-1.4 8.9 0.5 148 0 0 2
-1.4 9.1 0.5 133 0 1 2
-1.4 9.6 0 119 0 0 2
-1.3 8.8 0.2 81 0 0 2
-1.3 8.8 0.4 90 0 0 2
-1.3 8.8 0.5 139 0 0 2
-1.3 8.9 0.1 63 0 0 2
-1.3 8.9 0.2 65 0 1 2
-1.3 8.9 0.3 94 0 0 2
-1.3 9 0.1 64 0 0 2
-1.3 9 0.5 143 0 0 2
-1.2 3.5 0 169 0 1 2
-1.2 4.3 0 142 0 1 2
-1.2 5 -0.3 131 0 1 2
-1.2 6.2 -0.6 86 0 1 2
-1.2 6.6 -0.6 117 0 1 2
-1.2 7 -0.4 100 0 1 2
-1.2 7.4 -0.3 107 0 1 2
-1.2 8.2 0 143 0 1 2
-1.2 8.9 0.2 85 0 1 2
-1.2 8.9 0.4 104 0 1 2
-1.2 8.9 0.5 145 0 0 2
-1.2 9 0 106 0 1 2
-1.2 9 0.2 63 0 0 2
-1.2 9.2 0.4 143 0 0 2
-1.2 9.8 0 156 0 1 2
-1.2 10.5 0 157 0 1 2
-1.2 11.3 0 152 0 1 2
-1.2 12.1 0 159 0 1 2
-1.2 12.9 0 155 0 1 2
-1.2 13.7 0 164 0 1 2
-1.2 14.5 0 143 0 1 2
-1.2 15.2 0 147 0 1 2
-1.2 16 0 136 0 1 2
-1.2 16.8 0 143 0 1 2
-1.2 17.6 0 153 0 1 2
-1.2 18.4 0 135 0 1 2
-1.2 19.2 0 152 0 1 2
-1.2 20 0 90 0 1 4
-1.1 8.9 0.5 126 0 1 2
-1.1 9 0.2 84 0 1 2
-1.1 9 0.3 129 0 1 2
-1.1 9 0.4 126 0 0 2
-1.1 9 0.5 134 0 0 2
-1.1 9.1 0.2 118 0 1 2
-1.1 9.1 0.3 128 0 1 2
-1.1 9.1 0.4 135 0 0 2
-1.1 9.1 0.5 127 0 1 2
-1.1 9.2 0.3 125 0 0 2
-0.4 3.5 0 161 0 1 2
-0.4 4.3 0 123 0 1 2
-0.4 5 0 156 0 1 2
-0.4 5.8 0 100 0 1 2
-0.4 6.6 0 108 0 1 2
-0.4 7.4 0 128 0 1 2
-0.4 8.2 0 147 0 1 2
-0.4 9 -0.1 154 0 1 2
-0.4 9.8 -0.2 159 0 1 2
-0.4 10.5 -0.4 145 0 1 2
-0.4 11.3 -0.4 163 0 1 2
-0.4 12.1 -0.4 157 0 1 2
-0.4 12.9 -0.4 159 0 1 2
-0.4 13.7 -0.4 152 0 1 2
-0.4 14.5 -0.2 157 0 1 2
-0.4 15.2 -0.1 164 0 1 2
-0.4 16 0 159 0 1 2
-0.4 16.8 0 152 0 1 2
-0.4 17.6 0 155 0 1 2
-0.4 18.4 0 149 0 1 2
-0.4 19.2 0 153 0 1 2
-0.4 20 0 94 0 1 4
0.1 6.1 0 128 0 0 2
0.1 6.1 0.1 112 0 0 2
0.1 6.1 0.2 104 0 0 2
0.1 6.2 0 92 0 0 2
0.1 6.2 0.2 131 0 0 2
0.1 6.2 0.3 143 0 0 2
0.2 5.9 0.1 57 0 0 2
0.2 5.9 0.2 119 0 0 2
0.2 6 0 56 0 0 2
0.2 6 0.1 51 0 0 2
0.2 6 0.2 54 0 0 2
0.2 6.3 0.3 149 0 0 2
0.3 3.5 0 88 0 1 2
0.3 4.3 0 117 0 1 2
0.3 5 0 160 0 1 2
0.3 5.8 0.1 54 0 0 2
0.3 5.8 0.2 145 0 0 2
0.3 6.1 0.3 140 0 0 2
0.3 6.2 0.3 148 0 0 2
0.3 6.4 0.3 134 0 0 2
0.3 8.2 0 140 0 1 2
0.3 9 -0.2 136 0 1 2
0.3 12.9 -1.1 145 0 1 2
0.3 13.3 -1.1 149 0 1 2
0.3 13.7 -1.1 166 0 1 2
0.3 14.1 -1 153 0 1 2
0.3 14.5 -0.8 161 0 1 2
0.3 14.9 -0.5 144 0 1 2
0.3 15.2 -0.2 143 0 1 2
0.3 16 0 157 0 1 2
0.3 16.8 0 143 0 1 2
0.3 17.6 0 155 0 1 2
0.3 18.4 0 154 0 1 2
0.3 19.2 0 139 0 1 2
0.3 20 0 91 0 1 4
0.4 5.8 0 54 0 0 2
0.4 5.8 0.1 162 0 0 2
0.4 6 0.3 144 0 0 2
0.4 6.2 0.3 134 0 0 2
0.4 6.3 0.3 148 0 0 2
0.4 6.4 0.3 154 0 0 2
0.5 5.7 0 118 0 0 2
0.5 6.1 0.3 145 0 0 2
0.5 6.3 0.3 154 0 0 2
0.6 5.9 0.1 160 0 0 2
0.6 6.1 0.3 158 0 0 2
0.6 6.3 0.3 158 0 0 2
0.7 5.9 0.1 163 0 0 2
0.7 6.1 0.2 156 0 0 2
0.7 6.2 0.3 163 0 0 2
0.7 6.4 0.2 156 0 0 2
0.7 13.7 -1.3 122 0 1 1
0.7 14.1 -1.2 127 0 1 1
0.7 14.5 -1 125 0 1 1
0.7 14.9 -0.6 112 0 1 1
0.7 15.2 -0.3 135 0 1 2
0.8 6 0.1 149 0 0 2
0.8 6.2 0.2 150 0 0 2
0.9 6.2 0.2 155 0 0 2
0.9 6.3 0.2 153 0 0 2
1 6 0 147 0 0 2
1 6.1 0 165 0 0 2
1 6.3 0.2 161 0 0 2
1 6.4 0.2 156 0 0 2
1 6.5 0.2 161 0 0 2
1.1 3.5 0 154 0 1 2
1.1 4.3 0 158 0 1 2
1.1 5 0 168 0 1 2
1.1 5.8 0 146 0 1 2
1.1 6.1 0 145 0 0 2
1.1 6.1 0.1 144 0 0 2
1.1 6.2 0.1 159 0 0 2
1.1 6.2 0.2 157 0 0 2
1.1 6.3 0.1 158 0 0 2
1.1 6.3 0.2 165 0 0 2
1.1 7.4 0 133 0 1 2
1.1 8.2 0 160 0 1 2
1.1 14.1 -1.3 127 0 1 1
1.1 14.5 -1.1 103 0 1 4
1.1 14.9 -0.7 107 0 1 1
1.1 15.3 -0.4 156 0 1 2
1.1 16 0 143 0 1 2
1.1 16.8 0 145 0 1 2
1.1 17.6 0 141 0 1 2
1.1 18.4 0 149 0 1 2
1.1 19.2 0 151 0 1 2
1.1 20 0 98 0 1 4
1.5 14.1 -1.3 92 0 1 1
1.5 14.5 -1.1 110 0 1 1
1.5 14.9 -0.7 98 0 1 1
1.5 15.3 -0.4 157 0 1 2
1.9 3.5 0 161 0 1 2
1.9 4.3 0 127 0 1 2
1.9 5 0 121 0 1 2
1.9 5.8 0 115 0 1 2
1.9 6.6 0 146 0 1 2
1.9 7.4 0 163 0 1 2
1.9 8.2 0 147 0 1 2
1.9 14.1 -1.3 86 0 1 1
1.9 14.5 -1.1 94 0 1 4
1.9 14.9 -0.7 85 0 1 4
1.9 15.3 -0.4 130 0 1 2
1.9 16 0 158 0 1 2
1.9 16.8 0 151 0 1 2
1.9 17.6 0 149 0 1 2
1.9 18.4 0 157 0 1 2
1.9 19.2 0 146 0 1 2
1.9 20 0 95 0 1 4
2.3 14.1 -1.3 118 0 1 1
2.3 14.5 -1.1 109 0 1 1
2.3 14.9 -0.7 96 0 1 1
2.3 15.3 -0.4 123 0 1 2
2.7 3.5 0 158 0 1 2
2.7 4.3 0 119 0 1 2
2.7 5 0 167 0 1 2
2.7 5.8 0 171 0 1 2
2.7 6.6 0 120 0 1 2
2.7 7.4 0 167 0 1 2
2.7 8.2 0 164 0 1 2
2.7 14.1 -1.3 97 0 1 1
2.7 14.5 -1.1 118 0 1 4
2.7 14.9 -0.7 116 0 1 1
2.7 15.3 -0.4 119 0 1 2
2.7 16 0 159 0 1 2
2.7 16.8 0 149 0 1 2
2.7 17.6 0 144 0 1 2
2.7 18.4 0 150 0 1 2
2.7 19.2 0 156 0 1 2
2.7 20 0 101 0 1 4
3.1 14.1 -1.3 121 0 1 1
3.1 14.5 -1.1 117 0 1 1
3.1 14.9 -0.7 103 0 1 1
3.1 15.3 -0.4 106 0 1 2
3.3 4.7 0 61 0 0 2
3.3 4.7 0.1 56 0 0 2
3.3 4.7 0.2 95 0 0 2
3.3 4.8 0 59 0 0 2
3.3 4.8 0.1 55 0 0 2
3.3 4.8 0.2 70 0 0 2
3.3 5 0 58 0 0 2
3.3 5 0.1 88 0 0 2
3.4 4.4 0 44 0 0 2
3.4 4.4 0.3 58 0 0 2
3.4 4.5 0 65 0 0 2
3.4 4.5 0.2 60 0 0 2
3.4 4.5 0.4 131 0 0 2
3.4 4.6 0 64 0 0 2
3.4 4.6 0.1 58 0 0 2
3.4 4.6 0.3 69 0 0 2
3.4 4.6 0.4 128 0 0 2
3.4 4.7 0.2 60 0 0 2
3.4 4.9 0.2 105 0 0 2
3.4 5.1 0 60 0 0 2
3.4 5.1 0.1 119 0 0 2
3.4 5.1 0.2 100 0 0 2
3.4 5.2 0.2 133 0 0 2
3.5 3.5 0 158 0 1 2
3.5 4.3 0 61 0 0 2
3.5 4.3 0.1 56 0 0 2
3.5 4.3 0.2 62 0 0 2
3.5 4.3 0.3 155 0 0 2
3.5 4.4 0 123 0 0 2
3.5 4.4 0.2 63 0 0 2
3.5 4.4 0.3 103 0 0 2
3.5 4.5 0.4 138 0 0 2
3.5 4.9 0.3 142 0 0 2
3.5 5.2 0.2 168 0 0 2
3.5 5.8 0 124 0 1 2
3.5 6.6 0 159 0 1 2
3.5 7.4 0 167 0 1 2
3.5 8.2 0 163 0 1 2
3.5 14.1 -1.3 112 0 1 1
3.5 14.5 -1.1 103 0 1 1
3.5 14.9 -0.7 105 0 1 1
3.5 15.3 -0.4 146 0 1 2
3.5 16 0 155 0 1 2
3.5 16.8 0 161 0 1 2
3.5 17.6 0 157 0 1 2
3.5 18.4 0 146 0 1 2
3.5 19.2 0 146 0 1 2
3.5 20 0 97 0 1 4
3.6 4.2 0 55 0 0 2
3.6 4.2 0.1 57 0 0 2
3.6 4.2 0.2 54 0 0 2
3.6 4.2 0.3 140 0 0 2
3.6 4.3 0.2 57 0 0 2
3.6 4.3 0.3 61 0 0 2
3.6 4.5 0.4 153 0 0 2
3.6 4.6 0.4 153 0 0 2
3.6 4.8 0.3 153 0 0 2
3.6 5.1 0.3 145 0 0 2
3.6 5.2 0.2 159 0 0 2
3.7 4.2 0.1 59 0 0 2
3.7 4.2 0.2 62 0 0 2
3.7 4.2 0.3 85 0 0 2
3.7 4.4 0.3 160 0 0 2
3.7 4.6 0.4 154 0 0 2
3.7 4.8 0.3 155 0 0 2
3.7 5 0.3 134 0 0 2
3.7 5.1 0.3 154 0 0 2
3.7 5.2 0.2 148 0 0 2
3.8 4.2 0.2 71 0 0 2
3.8 4.3 0 58 0 0 2
3.8 4.3 0.1 53 0 0 2
3.8 4.3 0.2 75 0 0 2
3.8 4.3 0.3 157 0 0 2
3.8 4.5 0.3 161 0 0 2
3.9 4.3 0.1 60 0 0 2
3.9 4.3 0.2 77 0 0 2
3.9 14.1 -1.3 80 0 1 1
3.9 14.5 -1.1 109 0 1 1
3.9 14.9 -0.7 115 0 1 1
3.9 15.3 -0.4 151 0 1 2
4 4.3 0.1 159 0 0 2
4 4.3 0.2 136 0 0 2
4 4.3 0.3 153 0 0 2
4.1 4.4 -0.1 147 0 0 2
4.3 4.3 0 177 0 1 2
4.3 6.6 0 154 0 1 2
4.3 7.4 0 122 0 1 2
4.3 8.2 0 137 0 1 2
4.3 14.1 -1.3 108 0 1 1
4.3 14.5 -1.1 109 0 1 1
4.3 14.9 -0.7 115 0 1 4
4.3 15.3 -0.4 133 0 1 2
4.3 16 0 156 0 1 2
4.3 16.8 0 152 0 1 2
4.3 17.6 0 145 0 1 2
4.3 18.4 0 151 0 1 2
4.3 19.2 0 145 0 1 2
4.3 20 0 99 0 1 4
4.7 14.1 -1.3 106 0 1 1
4.7 14.5 -1.1 117 0 1 1
4.7 14.9 -0.7 108 0 1 4
4.7 15.3 -0.4 153 0 1 2
5 5 0 169 0 1 2
5 5.8 0 155 0 1 2
5 6.6 0 166 0 1 2
5 7.4 0 170 0 1 2
5 8.2 0 157 0 1 2
5 14.1 -1.3 103 0 1 1
5 14.5 -1.1 122 0 1 1
5 14.9 -0.7 100 0 1 1
5 15.3 -0.4 134 0 1 2
5 16 0 152 0 1 2
5 16.8 0 155 0 1 2
5 17.6 0 141 0 1 2
5 18.4 0 153 0 1 2
5 19.2 0 157 0 1 2
5 20 0 100 0 1 4
5.4 14.1 -1.3 120 0 1 4
5.4 14.5 -1.1 100 0 1 1
5.4 14.9 -0.7 113 0 1 4
5.4 15.3 -0.4 120 0 1 2
5.8 5.8 0 174 0 1 2
5.8 6.6 0 133 0 1 2
5.8 7.4 0 151 0 1 2
5.8 8.2 0 156 0 1 2
5.8 14.1 -1.3 123 0 1 1
5.8 14.5 -1.1 117 0 1 1
5.8 14.9 -0.7 96 0 1 1
5.8 15.3 -0.4 108 0 1 2
5.8 16 0 165 0 1 2
5.8 16.8 0 147 0 1 2
5.8 17.6 0 149 0 1 2
5.8 18.4 0 121 0 1 2
5.8 19.2 0 142 0 1 2
5.8 20 0 98 0 1 4
6.2 14.1 -1.3 112 0 1 1
6.2 14.5 -1.1 116 0 1 4
6.2 14.9 -0.7 109 0 1 1
6.2 15.3 -0.4 132 0 1 2
6.6 6.6 0 155 0 1 2
6.6 7.4 0 136 0 1 2
6.6 8.2 0 146 0 1 2
6.6 14.1 -1.3 96 0 1 1
6.6 14.5 -1.1 112 0 1 4
6.6 14.9 -0.7 113 0 1 1
6.6 15.3 -0.4 149 0 1 2
6.6 16 0 140 0 1 2
6.6 16.8 0 150 0 1 2
6.6 17.6 0 153 0 1 2
6.6 18.4 0 145 0 1 2
6.6 19.2 0 154 0 1 2
6.6 20 0 96 0 1 4
7 13.7 -1.3 96 0 1 1
7 14.1 -1.2 75 0 1 1
7 14.5 -1 87 0 1 1
7 14.9 -0.6 68 0 1 1
7 15.2 -0.3 105 0 1 2
7.4 7.4 0 169 0 1 2
7.4 8.2 0 169 0 1 2
7.4 9 -0.2 150 0 1 2
7.4 12.9 -1.1 79 0 1 1
7.4 13.3 -1.1 79 0 1 1
7.4 13.7 -1.1 60 0 1 1
7.4 14.1 -1 85 0 1 1
7.4 14.5 -0.8 93 0 1 1
7.4 14.9 -0.5 110 0 1 2
7.4 15.2 -0.2 134 0 1 2
7.4 16 0 152 0 1 2
7.4 16.8 0 151 0 1 2
7.4 17.6 0 148 0 1 2
7.4 18.4 0 149 0 1 2
7.4 19.2 0 142 0 1 2
7.4 20 0 93 0 1 4
7.8 11.3 -0.7 62 0 1 1
7.8 11.7 -0.7 58 0 1 1
7.8 12.1 -0.7 74 0 1 1
7.8 12.5 -0.7 57 0 1 1
7.8 12.9 -0.7 64 0 1 1
7.8 13.3 -0.7 48 0 1 1
7.8 13.7 -0.7 59 0 1 1
7.8 14.1 -0.6 84 0 1 1
7.8 14.5 -0.5 83 0 1 2
8.2 8.2 0 151 0 1 2
8.2 9 -0.1 149 0 1 2
8.2 9.8 -0.2 119 0 1 2
8.2 10.2 -0.3 116 0 1 2
8.2 10.5 -0.4 141 0 1 2
8.2 10.9 -0.4 128 0 1 2
8.2 11.3 -0.4 89 0 1 2
8.2 11.7 -0.4 98 0 1 2
8.2 12.1 -0.4 117 0 1 2
8.2 12.5 -0.4 142 0 1 2
8.2 12.9 -0.4 110 0 1 2
8.2 13.3 -0.4 123 0 1 2
8.2 13.7 -0.4 98 0 1 2
8.2 14.1 -0.3 137 0 1 2
8.2 14.5 -0.2 102 0 1 2
8.2 15.2 -0.1 109 0 1 2
8.2 16 0 125 0 1 2
8.2 16.8 0 134 0 1 2
8.2 17.6 0 141 0 1 2
8.2 18.4 0 134 0 1 2
8.2 19.2 0 152 0 1 2
8.2 20 0 99 0 1 4
9 9 0 153 0 1 2
9 9.8 0 161 0 1 2
9 10.5 0 156 0 1 2
9 11.3 0 135 0 1 2
9 12.1 0 148 0 1 2
9 12.9 0 147 0 1 2
9 13.7 0 132 0 1 2
9 14.5 0 142 0 1 2
9 15.2 0 132 0 1 2
9 16 0 135 0 1 2
9 16.8 0 153 0 1 2
9 17.6 0 146 0 1 2
9 18.4 0 161 0 1 2
9 19.2 0 157 0 1 2
9 20 0 102 0 1 4
9.8 9.8 0 162 0 1 2
9.8 10.5 0 158 0 1 2
9.8 11.3 0 162 0 1 2
9.8 12.1 0 153 0 1 2
9.8 12.9 0 157 0 1 2
9.8 13.7 0 155 0 1 2
9.8 14.5 0 159 0 1 2
9.8 15.2 0 158 0 1 2
9.8 16 0 160 0 1 2
9.8 16.8 0 156 0 1 2
9.8 17.6 0 143 0 1 2
9.8 18.4 0 154 0 1 2
9.8 19.2 0 149 0 1 2
9.8 20 0 100 0 1 4
10.5 10.5 0 164 0 1 2
10.5 11.3 0 147 0 1 2
10.5 12.1 0 136 0 1 2
10.5 12.9 0 143 0 1 2
10.5 13.7 0 144 0 1 2
10.5 14.5 0 127 0 1 2
10.5 15.2 0 130 0 1 2
10.5 16 0 150 0 1 2
10.5 16.8 0 154 0 1 2
10.5 17.6 0 150 0 1 2
10.5 18.4 0 144 0 1 2
10.5 19.2 0 140 0 1 2
10.5 20 0 93 0 1 1
11.3 11.3 0 165 0 1 2
11.3 12.1 0 148 0 1 2
11.3 12.9 0 150 0 1 2
11.3 13.7 0 136 0 1 2
11.3 14.5 0 160 0 1 2
11.3 15.2 0 158 0 1 2
11.3 16 0 144 0 1 2
11.3 16.8 0 150 0 1 2
11.3 17.6 0 146 0 1 2
11.3 18.4 0 157 0 1 2
11.3 19.2 0 149 0 1 2
11.3 20 0 89 0 1 1
12.1 12.1 0 162 0 1 2
12.1 12.9 0 161 0 1 2
12.1 13.7 0 157 0 1 2
12.1 14.5 0 157 0 1 2
12.1 15.2 0 151 0 1 2
12.1 16 0 146 0 1 2
12.1 16.8 0 146 0 1 2
12.1 17.6 0 155 0 1 2
12.1 18.4 0 160 0 1 2
12.1 19.2 0 155 0 1 2
12.1 20 0 101 0 1 1
12.9 12.9 0 146 0 1 2
12.9 13.7 0 147 0 1 2
12.9 14.5 0 160 0 1 2
12.9 15.2 0 141 0 1 2
12.9 16 0 135 0 1 2
12.9 16.8 0 152 0 1 2
12.9 17.6 0 153 0 1 2
12.9 18.4 0 149 0 1 2
12.9 19.2 0 156 0 1 2
12.9 20 0 100 0 1 1
13.7 13.7 0 153 0 1 2
13.7 14.5 0 144 0 1 2
13.7 15.2 0 145 0 1 2
13.7 16 0 160 0 1 2
13.7 16.8 0 157 0 1 2
13.7 17.6 0 158 0 1 2
13.7 18.4 0 142 0 1 2
13.7 19.2 0 146 0 1 2
13.7 20 0 93 0 1 1
14.5 14.5 0 151 0 1 2
14.5 15.2 0 158 0 1 2
14.5 16 0 153 0 1 2
14.5 16.8 0 147 0 1 2
14.5 17.6 0 143 0 1 2
14.5 18.4 0 157 0 1 2
14.5 19.2 0 144 0 1 2
14.5 20 0 97 0 1 1
15.2 15.2 0 154 0 1 2
15.2 16 0 154 0 1 2
15.2 16.8 0 151 0 1 2
15.2 17.6 0 150 0 1 2
15.2 18.4 0 148 0 1 2
15.2 19.2 0 142 0 1 2
15.2 20 0 86 0 1 1
16 16 0 160 0 1 2
16 16.8 0 159 0 1 2
16 17.6 0 163 0 1 2
16 18.4 0 160 0 1 2
16 19.2 0 157 0 1 2
16 20 0 101 0 1 1
16.8 17.6 0 155 0 1 2
16.8 18.4 0 154 0 1 2
16.8 19.2 0 153 0 1 2
16.8 20 0 94 0 1 1
17.6 18.4 0 155 0 1 2
17.6 19.2 0 154 0 1 2
17.6 20 0 97 0 1 1
18.4 19.2 0 155 0 1 2
18.4 20 0 98 0 1 1
19.2 20 0 98 0 1 1
