1.9 -4 0 134 0 1 1
2.3 -4.8 0 128 0 1 1
2.3 -4.4 0 126 0 1 1
2.3 -4 0 105 0 1 1
2.3 -3.6 0 112 0 1 1
2.4 -4 0.1 72 0 1 2
2.5 -4.1 0.1 112 0 1 2
2.5 -4 0 141 0 1 2
2.5 -4 0.1 82 0 1 2
2.5 -3.9 0 48 0 1 2
2.5 -3.9 0.1 43 0 1 2
2.5 -3.9 0.2 105 0 1 2
2.5 -3.8 0.1 44 0 1 2
2.5 -3.8 0.2 93 0 1 2
2.5 -3.7 0 47 0 1 2
2.5 -3.7 0.1 59 0 1 2
2.5 -2.8 -0.2 132 0 1 1
2.6 -4.1 0.2 127 0 1 2
2.6 -3.8 0 94 0 1 2
2.6 -3.7 0 110 0 1 2
2.6 -3.7 0.1 73 0 1 2
2.6 -3.7 0.2 121 0 1 2
2.7 -5.5 -0.1 134 0 1 1
2.7 -5.1 0 132 0 1 1
2.7 -4.8 0 138 0 1 1
2.7 -3.6 0 136 0 1 1
2.7 -3.2 -0.1 133 0 1 1
2.7 -2.8 -0.2 116 0 1 1
2.8 -3.7 0.2 127 0 1 2
2.9 -5.8 -0.2 121 0 1 1
2.9 -4.1 0.2 130 0 1 2
2.9 -4 0.2 137 0 1 2
2.9 -3.9 0.2 137 0 1 2
2.9 -3.8 0.2 136 0 1 2
2.9 -2.8 -0.2 114 0 1 1
3 -4 0.1 128 0 1 2
3 -3.7 0 93 0 1 2
3 -3.7 0.1 118 0 1 2
3 -3.7 0.2 125 0 1 2
3.1 -5.9 -0.1 88 0 1 1
3.1 -5.1 0 130 0 1 1
3.1 -4.8 0 133 0 1 1
3.1 -3.7 0 127 0 1 2
3.1 -3.6 0 113 0 1 1
3.1 -2.8 -0.2 131 0 1 1
3.3 -5.9 -0.1 109 0 1 1
3.3 -2.8 -0.2 95 0 1 1
3.5 -7.2 -0.2 115 0 1 1
3.5 -7 -0.2 126 0 1 1
3.5 -6.8 -0.2 109 0 1 1
3.5 -6.6 -0.2 103 0 1 1
3.5 -6.4 -0.2 92 0 1 1
3.5 -6.3 -0.1 66 0 1 1
3.5 -6.1 -0.1 132 0 1 1
3.5 -5.9 0 135 0 1 1
3.5 -5.5 0 84 0 1 1
3.5 -5.1 0 94 0 1 1
3.5 -4.8 0 138 0 1 1
3.5 -4.4 0 123 0 1 1
3.5 -4 0 133 0 1 1
3.5 -3.6 0 135 0 1 1
3.5 -3.2 -0.1 133 0 1 1
3.5 -2.8 -0.2 113 0 1 1
3.5 -2.6 -0.8 108 0 1 4
3.7 -2.8 -0.2 83 0 1 1
3.9 -7.4 -0.1 133 0 1 1
3.9 -6.7 -0.1 136 0 1 1
3.9 -5.9 0 133 0 1 1
3.9 -5.5 0 139 0 1 1
3.9 -5.1 0 135 0 1 1
3.9 -4.8 0 122 0 1 1
3.9 -4.4 0 129 0 1 1
3.9 -4 0 113 0 1 1
3.9 -3.6 0 132 0 1 1
3.9 -2.8 -0.2 103 0 1 1
3.9 -2.6 -0.8 121 0 1 4
3.9 1.1 -0.2 123 0 1 1
3.9 1.9 0 142 0 1 1
4.1 -2.8 -0.2 125 0 1 1
4.1 1.1 -0.2 121 0 1 1
4.3 -8.7 0 132 0 1 1
4.3 -8.3 0 133 0 1 1
4.3 -7.9 0 126 0 1 1
4.3 -7.5 0 141 0 1 1
4.3 -7.1 0 125 0 1 1
4.3 -6.7 0 138 0 1 1
4.3 -6.3 0 116 0 1 1
4.3 -5.9 0 135 0 1 1
4.3 -5.5 0 139 0 1 1
4.3 -5.1 0 142 0 1 1
4.3 -4.8 0 137 0 1 1
4.3 -4.4 0 81 0 1 1
4.3 -4 0 136 0 1 1
4.3 -3.6 0 132 0 1 1
4.3 -3.2 -0.1 75 0 1 1
4.3 -2.8 -0.2 121 0 1 1
4.3 -2.6 -0.8 96 0 1 4
4.3 -2.3 -1.3 113 0 1 4
4.3 1.1 -0.2 118 0 1 1
4.3 1.5 -0.1 133 0 1 1
4.3 1.9 0 145 0 1 1
4.5 -4 0 59 0 1 2
4.5 -4 0.1 47 0 1 2
4.5 -3.9 0.1 109 0 1 2
4.5 -3.8 0 41 0 1 2
4.5 -2.8 -0.2 125 0 1 1
4.5 1.1 -0.2 130 0 1 1
4.6 -8 -0.1 140 0 1 5
4.6 -4.3 0.1 56 0 1 2
4.6 -4.2 0.1 86 0 1 2
4.6 -3.9 0 79 0 1 2
4.6 -2.2 -0.8 63 0 1 4
4.6 -1.8 -0.8 60 0 1 4
4.6 -1.4 -0.8 61 0 1 4
4.6 -1 -0.8 62 0 1 4
4.6 -0.6 -0.8 61 0 1 4
4.6 -0.2 -0.8 58 0 1 4
4.6 0.2 -0.8 42 0 1 4
4.7 -9.2 0.1 115 0 1 5
4.7 -7.9 0 140 0 1 1
4.7 -7.6 0.1 126 0 1 5
4.7 -7.5 0 131 0 1 1
4.7 -7.1 0 132 0 1 1
4.7 -6.7 0 150 0 1 1
4.7 -6.3 0 141 0 1 1
4.7 -5.9 0 135 0 1 1
4.7 -5.5 0 126 0 1 1
4.7 -5.1 0 85 0 1 1
4.7 -4.8 0 141 0 1 1
4.7 -4.5 0 77 0 1 2
4.7 -4.4 0 119 0 1 1
4.7 -3.9 -0.1 121 0 1 2
4.7 -3.8 0 44 0 1 2
4.7 -3.8 0.2 136 0 1 2
4.7 -3.6 0 76 0 1 1
4.7 -2.8 -0.1 104 0 1 1
4.7 -2.5 -0.5 72 0 1 4
4.7 0.6 -0.5 85 0 1 4
4.7 1.1 -0.1 105 0 1 1
4.7 1.9 0 149 0 1 1
4.7 2.3 0 146 0 1 1
4.8 -8.8 0.1 106 0 1 5
4.8 -6.6 0.1 54 0 1 2
4.8 -4.6 -0.1 120 0 1 2
4.8 -4.5 0 84 0 1 2
4.8 -4.4 0.2 135 0 1 2
4.8 -3.8 0.1 140 0 1 2
4.8 -3.7 0 42 0 1 2
4.9 -9.5 0.2 126 0 1 5
4.9 -8.3 0.1 95 0 1 5
4.9 -7.9 0.2 91 0 1 5
4.9 -7 0.1 129 0 1 2
4.9 -6.8 0.1 49 0 1 2
4.9 -6.7 0.2 83 0 1 2
4.9 -6.5 0 44 0 1 2
4.9 -6.5 0.1 109 0 1 2
4.9 -4.4 0.1 123 0 1 2
4.9 -4.2 0.2 135 0 1 2
4.9 -3.9 0.2 141 0 1 2
4.9 -3.8 0 113 0 1 2
4.9 -3.7 0.1 116 0 1 2
4.9 -2.8 -0.1 100 0 1 1
4.9 1.1 -0.1 95 0 1 1
5 -9.1 0.2 101 0 1 5
5 -7.9 0 137 0 1 1
5 -7.5 0 115 0 1 1
5 -7.1 0 118 0 1 2
5 -7 0.1 119 0 1 2
5 -6.9 0.2 109 0 1 2
5 -6.6 -0.1 113 0 1 2
5 -6.5 0 48 0 1 2
5 -6.5 0.1 43 0 1 2
5 -6.5 0.2 129 0 1 2
5 -6.3 0 126 0 1 1
5 -5.9 0 130 0 1 1
5 -5.5 0 129 0 1 1
5 -5.1 0 135 0 1 1
5 -4.8 0 120 0 1 1
5 -3.8 0 122 0 1 2
5 -3.6 0 98 0 1 1
5 -3.2 0 130 0 1 1
5 -2.8 0 106 0 1 1
5 -2.6 -0.1 110 0 1 1
5 -2.4 -0.1 125 0 1 1
5 -2.2 -0.2 121 0 1 1
5 -2.1 -0.2 102 0 1 1
5 -1.9 -0.2 112 0 1 1
5 -1.7 -0.2 122 0 1 1
5 -1.5 -0.2 115 0 1 1
5 -1.3 -0.2 79 0 1 1
5 -1.1 -0.2 90 0 1 1
5 -0.9 -0.2 85 0 1 1
5 -0.7 -0.2 126 0 1 1
5 -0.5 -0.2 112 0 1 1
5 -0.3 -0.2 102 0 1 1
5 -0.1 -0.2 89 0 1 1
5 0.1 -0.2 109 0 1 1
5 0.3 -0.2 112 0 1 1
5 0.5 -0.2 91 0 1 1
5 0.7 -0.1 123 0 1 1
5 0.9 -0.1 133 0 1 1
5 1.1 0 129 0 1 1
5 1.5 0 135 0 1 1
5 1.9 0 150 0 1 1
5 2.3 0 146 0 1 1
5.1 -9.8 0.4 119 0 1 5
5.1 -8.6 0.2 90 0 1 5
5.1 -6.8 0.2 128 0 1 2
5.1 -6.6 0 96 0 1 2
5.1 -6.5 0 76 0 1 2
5.1 -6.4 0.1 41 0 1 2
5.1 -6.4 0.2 145 0 1 2
5.1 -4.1 0.2 144 0 1 2
5.2 -9.4 0.4 107 0 1 5
5.2 -8.2 0.4 113 0 1 5
5.2 -6.6 0 58 0 1 2
5.2 -6.5 0 52 0 1 2
5.2 -6.5 0.2 141 0 1 2
5.2 -6.4 0.1 116 0 1 2
5.3 -10.5 0.7 89 0 1 5
5.3 -8.9 0.4 100 0 1 5
5.3 -7.7 0.2 127 0 1 5
5.3 -6.7 0.2 141 0 1 2
5.3 -6.5 0 116 0 1 2
5.3 -6.5 0.1 135 0 1 2
5.4 -10.1 0.6 123 0 1 5
5.4 -8.4 0.4 124 0 1 5
5.4 -8.3 0 139 0 1 1
5.4 -7.9 0 140 0 1 1
5.4 -6.3 0 84 0 1 1
5.4 -5.9 0 127 0 1 1
5.4 -5.5 0 141 0 1 1
5.4 -5.1 0 131 0 1 1
5.4 -4 0 137 0 1 1
5.4 -3.6 0 137 0 1 1
5.4 -3.2 0 142 0 1 1
5.4 -2.8 0 133 0 1 1
5.4 -2 -0.1 140 0 1 1
5.4 -1.3 -0.1 130 0 1 1
5.4 -0.5 -0.1 138 0 1 1
5.4 0.3 -0.1 153 0 1 1
5.4 1.1 0 146 0 1 1
5.4 1.5 0 149 0 1 1
5.4 1.9 0 149 0 1 1
5.4 2.3 0 132 0 1 1
5.4 2.7 0 152 0 1 1
5.5 -10.8 0.8 116 0 1 5
5.5 -9.6 0.5 114 0 1 5
5.5 -8 0.4 126 0 1 5
5.6 -10.4 0.7 120 0 1 5
5.6 -9.2 0.5 100 0 1 5
5.6 -8.7 0.7 82 0 1 5
5.6 -7.5 0.2 138 0 1 5
5.7 -11.1 0.9 96 0 1 5
5.7 -9.9 0.7 99 0 1 5
5.7 -8.3 0.5 122 0 1 5
5.8 -10.7 0.9 91 0 1 5
5.8 -9.5 0.7 88 0 1 5
5.8 -8.7 0 133 0 1 1
5.8 -8.3 0 137 0 1 1
5.8 -7.8 0.3 127 0 1 5
5.8 -7.1 0 141 0 1 1
5.8 -6.7 0 140 0 1 1
5.8 -6.3 0 82 0 1 1
5.8 -5.9 0 80 0 1 1
5.8 -5.5 0 147 0 1 1
5.8 -5.1 0 133 0 1 1
5.8 -4.8 0 132 0 1 1
5.8 -4.4 0 144 0 1 1
5.8 -4 0 83 0 1 1
5.8 -3.6 0 130 0 1 1
5.8 -3.2 0 140 0 1 1
5.8 -2.8 0 141 0 1 1
5.8 -2.4 0 114 0 1 1
5.8 -2 0 98 0 1 1
5.8 -1.6 0 134 0 1 1
5.8 -1.2 0 133 0 1 1
5.8 -0.8 0 135 0 1 1
5.8 -0.4 0 145 0 1 1
5.8 -0.1 0 147 0 1 1
5.8 0.3 0 149 0 1 1
5.8 0.7 0 139 0 1 1
5.8 1.1 0 148 0 1 1
5.8 1.5 0 148 0 1 1
5.8 1.9 0 145 0 1 1
5.8 2.3 0 145 0 1 1
5.8 2.7 0 152 0 1 1
5.9 -10.2 0.8 95 0 1 5
5.9 -9 0.8 104 0 1 5
5.9 -7.4 0.1 120 0 1 5
6 -11.4 0.9 100 0 1 5
6 -9.8 0.8 101 0 1 5
6 -8.6 0.8 118 0 1 5
6.1 -12.1 0.7 99 0 1 5
6.1 -11 1 84 0 1 5
6.1 -9.3 0.8 99 0 1 5
6.1 -8.1 0.6 121 0 1 5
6.2 -11.7 1 97 0 1 5
6.2 -10.5 1 108 0 1 5
6.2 -8.8 1 101 0 1 5
6.2 -7.9 0 136 0 1 1
6.2 -7.7 0.4 126 0 1 5
6.2 -7.5 0 138 0 1 1
6.2 -6.7 0 95 0 1 1
6.2 -6.3 0 105 0 1 1
6.2 -5.9 0 117 0 1 1
6.2 -5.5 0 145 0 1 1
6.2 -5.1 0 146 0 1 1
6.2 -4.3 -0.1 140 0 1 1
6.2 -3.5 -0.1 141 0 1 1
6.2 -2.7 -0.1 146 0 1 1
6.2 -2 -0.1 141 0 1 1
6.2 -1.2 0 141 0 1 1
6.2 -0.8 0 133 0 1 1
6.2 -0.4 0 141 0 1 1
6.2 -0.1 0 140 0 1 1
6.2 0.3 0 152 0 1 1
6.2 0.7 0 139 0 1 1
6.2 1.1 0 147 0 1 1
6.2 1.5 0 148 0 1 1
6.2 1.9 0 152 0 1 1
6.2 2.3 0 151 0 1 1
6.2 2.7 0 138 0 1 1
6.3 -12.4 0.8 86 0 1 5
6.3 -11.2 1.1 103 0 1 5
6.3 -10 1 97 0 1 5
6.3 -9.6 1 97 0 1 5
6.3 -8.4 0.9 114 0 1 5
6.3 -7.2 0.1 132 0 1 5
6.4 -12 1 101 0 1 5
6.4 -10.8 1.2 100 0 1 5
6.4 -9.1 1.2 94 0 1 5
6.4 -7.9 0.7 119 0 1 5
6.5 -11.5 1.2 102 0 1 5
6.5 -10.3 1.2 93 0 1 5
6.5 -8.7 1.2 98 0 1 5
6.5 -7.5 0.4 116 0 1 5
6.5 -0.3 0 58 0 1 2
6.5 -0.3 0.1 51 0 1 2
6.5 -0.2 0 43 0 1 2
6.5 -0.2 0.1 97 0 1 2
6.6 -12.7 0.9 92 0 1 5
6.6 -11.1 1.3 68 0 1 5
6.6 -9.9 1.2 88 0 1 5
6.6 -8.2 1 119 0 1 5
6.6 -7.1 0 125 0 1 1
6.6 -7 0.1 134 0 1 5
6.6 -6.7 0 130 0 1 1
6.6 -6.3 0 136 0 1 1
6.6 -5.9 0 100 0 1 1
6.6 -5.5 0 144 0 1 1
6.6 -5.1 0 139 0 1 1
6.6 -4.9 -0.1 149 0 1 1
6.6 -4.7 -0.1 145 0 1 1
6.6 -4.5 -0.2 144 0 1 1
6.6 -4.2 -0.2 135 0 1 1
6.6 -4.1 -0.2 134 0 1 1
6.6 -3.9 -0.2 141 0 1 1
6.6 -3.7 -0.2 140 0 1 1
6.6 -3.5 -0.2 137 0 1 1
6.6 -3.3 -0.2 145 0 1 1
6.6 -3.1 -0.2 145 0 1 1
6.6 -2.9 -0.2 143 0 1 1
6.6 -2.7 -0.2 139 0 1 1
6.6 -2.5 -0.2 125 0 1 1
6.6 -2.3 -0.2 125 0 1 1
6.6 -2.1 -0.2 139 0 1 1
6.6 -1.9 -0.2 137 0 1 1
6.6 -1.7 -0.2 126 0 1 1
6.6 -1.6 -0.1 133 0 1 1
6.6 -1.4 -0.1 139 0 1 1
6.6 -1.2 0 131 0 1 1
6.6 -0.8 0 128 0 1 1
6.6 -0.4 0 136 0 1 1
6.6 -0.1 0 136 0 1 1
6.6 0.1 0 42 0 1 2
6.6 0.3 0 141 0 1 1
6.6 0.7 0 147 0 1 1
6.6 1.1 0 145 0 1 1
6.6 1.5 0 63 0 1 2
6.6 1.6 0 47 0 1 2
6.6 1.9 0 147 0 1 1
6.6 2.3 0 146 0 1 1
6.6 2.7 0 142 0 1 1
6.6 3.1 -0.1 138 0 1 1
6.6 3.5 -0.1 136 0 1 1
6.7 -12.3 1.2 110 0 1 5
6.7 -10.6 1.4 90 0 1 5
6.7 -9.4 1.3 86 0 1 5
6.7 -7.8 0.7 114 0 1 5
6.7 -0.4 0.1 97 0 1 2
6.7 -0.1 0.2 147 0 1 2
6.7 0.1 0.1 90 0 1 2
6.7 1.4 0 79 0 1 2
6.7 1.5 0.1 43 0 1 2
6.7 1.6 0 48 0 1 2
6.7 1.6 0.2 103 0 1 2
6.7 1.8 0.1 65 0 1 2
6.7 1.9 0.1 101 0 1 2
6.8 -13 1 91 0 1 5
6.8 -11.8 1.3 92 0 1 5
6.8 -10.2 1.5 88 0 1 5
6.8 -9 1.5 103 0 1 5
6.8 -7.3 0.4 118 0 1 5
6.8 -5.1 -0.1 148 0 1 1
6.8 -1.2 -0.1 135 0 1 1
6.8 -0.5 0.1 82 0 1 2
6.8 0.1 0 75 0 1 2
6.8 1.4 0 87 0 1 2
6.8 1.4 0.1 95 0 1 2
6.8 1.5 0.2 120 0 1 2
6.8 2.1 0 120 0 1 2
6.8 2.1 0.1 87 0 1 2
6.8 3.5 -0.1 144 0 1 1
6.9 -13.7 1 98 0 1 5
6.9 -12.5 1.2 114 0 1 5
6.9 -11.4 1.4 90 0 1 5
6.9 -10.9 1.6 118 0 1 5
6.9 -9.7 1.5 85 0 1 5
6.9 -8.5 1.3 118 0 1 5
6.9 -6.9 0.1 116 0 1 5
6.9 0 0.2 140 0 1 2
6.9 0.1 -0.1 138 0 1 2
6.9 1.3 0 116 0 1 2
6.9 1.4 0 114 0 1 2
6.9 1.6 0.2 148 0 1 2
6.9 2.1 0.1 143 0 1 2
6.9 2.2 0 112 0 1 2
7 -13.3 1.2 83 0 1 5
7 -12.1 1.3 110 0 1 5
7 -10.4 1.7 98 0 1 5
7 -9.3 1.6 98 0 1 5
7 -8.1 1.1 124 0 1 5
7 -6.3 0 139 0 1 1
7 -5.9 0 135 0 1 1
7 -5.1 -0.1 138 0 1 1
7 -1.2 -0.1 141 0 1 1
7 -0.6 0 102 0 1 2
7 -0.5 0.2 119 0 1 2
7 -0.3 0.2 143 0 1 2
7 0.3 0 146 0 1 1
7 0.7 0 147 0 1 1
7 1.1 0 149 0 1 1
7 1.5 0.1 101 0 1 2
7 2.3 0 154 0 1 1
7 2.7 0 149 0 1 1
7 3.5 -0.1 136 0 1 1
7.1 -12.8 1.3 109 0 1 5
7.1 -11.6 1.5 114 0 1 5
7.1 -10 1.8 92 0 1 5
7.1 -8.8 1.6 110 0 1 5
7.1 -7.6 0.8 118 0 1 5
7.1 -0.7 -0.1 128 0 1 2
7.1 -0.6 0 114 0 1 2
7.1 -0.1 0.2 138 0 1 2
7.1 1.3 0 145 0 1 2
7.1 1.4 0 123 0 1 2
7.1 1.5 0 106 0 1 2
7.1 1.5 0.1 131 0 1 2
7.1 1.5 0.2 119 0 1 2
7.1 2 0.2 148 0 1 2
7.2 -12.4 1.4 110 0 1 5
7.2 -11.2 1.6 103 0 1 5
7.2 -9.5 1.9 90 0 1 5
7.2 -8.3 1.4 141 0 1 5
7.2 -7.2 0.4 117 0 1 5
7.2 -5.1 -0.2 129 0 1 1
7.2 -1.1 -0.2 139 0 1 1
7.2 1.6 0.2 132 0 1 2
7.2 1.9 0.2 152 0 1 2
7.2 2 0.1 147 0 1 2
7.2 3.5 -0.1 117 0 1 1
7.3 -11.9 1.5 115 0 1 5
7.3 -10.7 1.8 108 0 1 5
7.3 -9.1 1.8 107 0 1 5
7.3 -7.9 1.1 119 0 1 5
7.3 -6.7 0.1 136 0 1 5
7.4 -13.1 1.3 127 0 1 5
7.4 -11.5 1.6 113 0 1 5
7.4 -10.3 1.9 100 0 1 5
7.4 -8.6 1.7 122 0 1 5
7.4 -7.4 0.8 114 0 1 5
7.4 -6.7 0 139 0 1 1
7.4 -6.3 0 138 0 1 1
7.4 -5.9 0 143 0 1 1
7.4 -5.5 -0.1 96 0 1 1
7.4 -5 -0.2 124 0 1 1
7.4 -1.1 -0.2 140 0 1 1
7.4 -0.8 -0.1 124 0 1 1
7.4 0.3 0 128 0 1 1
7.4 0.7 0 134 0 1 1
7.4 1.1 0 157 0 1 1
7.4 2.3 0 121 0 1 1
7.4 2.7 0 149 0 1 1
7.4 3.1 0 148 0 1 1
7.4 3.5 0 141 0 1 1
7.4 3.7 -0.1 138 0 1 1
7.4 3.8 -0.1 125 0 1 1
7.5 -12.7 1.4 91 0 1 5
7.5 -11 1.8 87 0 1 5
7.5 -9.8 2 103 0 1 5
7.5 -8.2 1.5 121 0 1 5
7.5 -7 0.5 129 0 1 5
7.6 -12.2 1.5 109 0 1 5
7.6 -10.6 2 104 0 1 5
7.6 -9.4 2 114 0 1 5
7.6 -7.7 1.2 113 0 1 5
7.6 -6.5 0.2 134 0 1 5
7.6 -5 -0.2 140 0 1 1
7.6 -1.1 -0.2 137 0 1 1
7.7 -13 1.4 94 0 1 5
7.7 -10.1 2.1 107 0 1 5
7.7 -8.9 1.9 127 0 1 5
7.7 -7.3 0.8 106 0 1 5
7.7 4 -0.1 117 0 1 5
7.8 -10.9 2 98 0 1 5
7.8 -9.7 2.1 122 0 1 5
7.8 -8.5 1.7 128 0 1 5
7.8 -6.8 0.5 134 0 1 5
7.8 -6.3 0 136 0 1 1
7.8 -5.9 0 152 0 1 1
7.8 -5 -0.2 124 0 1 1
7.8 -1.1 -0.2 133 0 1 1
7.8 0.3 0 146 0 1 1
7.8 0.7 0 147 0 1 1
7.8 1.1 0 149 0 1 1
7.8 1.5 0 152 0 1 1
7.8 2.3 0 147 0 1 1
7.8 2.7 0 155 0 1 1
7.8 3.1 0 143 0 1 1
7.8 3.5 0 137 0 1 1
7.9 -13.2 1.4 102 0 1 5
7.9 -10.4 2.2 110 0 1 5
7.9 -9.2 2.1 120 0 1 5
7.9 -8 1.5 122 0 1 5
7.9 -6.4 0.2 137 0 1 5
8 -9.9 2.2 121 0 1 5
8 -8.8 2 121 0 1 5
8 -7.6 1.2 131 0 1 5
8 -7.1 0.8 104 0 1 5
8 -6.1 0.1 127 0 1 5
8 -5 -0.2 147 0 1 1
8 -1.1 -0.2 135 0 1 1
8 3.1 0 123 0 1 5
8 3.7 0 102 0 1 5
8.1 -9.5 2.2 122 0 1 5
8.1 -8.3 1.8 123 0 1 5
8.1 -6.7 0.5 134 0 1 5
8.1 -4.3 -0.6 130 0 1 4
8.2 -10.7 2.2 111 0 1 5
8.2 -9 2.1 126 0 1 5
8.2 -7.8 1.6 130 0 1 5
8.2 -6.7 0 138 0 1 1
8.2 -6.3 0 139 0 1 1
8.2 -6.3 0.2 147 0 1 5
8.2 -5.9 0 114 0 1 1
8.2 -5.5 -0.1 139 0 1 1
8.2 -5 -0.2 151 0 1 1
8.2 -1.1 -0.2 131 0 1 1
8.2 -0.8 -0.1 134 0 1 1
8.2 -0.4 0 123 0 1 1
8.2 -0.1 0 142 0 1 1
8.2 0.3 0 131 0 1 1
8.2 0.7 0 146 0 1 1
8.2 1.1 0 151 0 1 1
8.2 1.5 0 157 0 1 1
8.2 1.9 0 149 0 1 1
8.2 2.3 0 151 0 1 1
8.2 2.7 0 150 0 1 1
8.2 3.5 0.2 118 0 1 5
8.2 4 0.2 116 0 1 5
8.3 -10.2 2.3 119 0 1 5
8.3 -8.6 2 124 0 1 5
8.3 -7.4 1.2 137 0 1 5
8.3 -5 -0.2 149 0 1 1
8.3 -1.1 -0.2 122 0 1 1
8.3 2.9 0.1 128 0 1 5
8.4 -13.8 1.4 115 0 1 5
8.4 -9.8 2.3 128 0 1 5
8.4 -8.1 1.8 113 0 1 5
8.4 -6.9 0.8 138 0 1 5
8.4 3.8 0.4 115 0 1 5
8.5 -13.4 1.5 112 0 1 5
8.5 -10.5 2.3 124 0 1 5
8.5 -9.3 2.2 128 0 1 5
8.5 -7.7 1.5 143 0 1 5
8.5 -6.5 0.5 145 0 1 5
8.5 -5 -0.2 144 0 1 1
8.5 -4.3 -0.6 143 0 1 4
8.5 -1.1 -0.2 102 0 1 1
8.5 3.2 0.3 130 0 1 5
8.6 -14.1 1.4 89 0 1 5
8.6 -10.1 2.4 115 0 1 5
8.6 -8.9 2.2 127 0 1 5
8.6 -8.4 2 139 0 1 5
8.6 -7.2 1.2 139 0 1 5
8.6 -6.7 0 125 0 1 1
8.6 -6.3 0 138 0 1 1
8.6 -6 0.2 132 0 1 5
8.6 -5.9 0 124 0 1 1
8.6 -0.4 0 135 0 1 1
8.6 -0.1 0 142 0 1 1
8.6 0.3 0 143 0 1 1
8.6 0.7 0 144 0 1 1
8.6 1.1 0 148 0 1 1
8.6 1.5 0 153 0 1 1
8.6 1.9 0 152 0 1 1
8.6 2.1 0 129 0 1 5
8.6 2.6 0.1 129 0 1 5
8.6 4.1 0.5 130 0 1 5
8.7 -10.8 2.4 111 0 1 5
8.7 -9.6 2.3 124 0 1 5
8.7 -8 1.8 139 0 1 5
8.7 -6.8 0.8 144 0 1 5
8.7 -5 -0.2 141 0 1 1
8.7 -1.1 -0.2 106 0 1 1
8.7 3.5 0.5 131 0 1 5
8.8 -10.4 2.4 127 0 1 5
8.8 -9.2 2.2 128 0 1 5
8.8 -7.5 1.6 147 0 1 5
8.8 -4.3 -0.6 153 0 1 4
8.8 2.4 0.2 127 0 1 5
8.8 2.9 0.4 126 0 1 5
8.8 4.4 0.7 128 0 1 5
8.9 -9.9 2.4 130 0 1 5
8.9 -8.7 2.1 136 0 1 5
8.9 -7.1 1.2 155 0 1 5
8.9 -6 0.2 152 0 1 5
8.9 -5 -0.2 143 0 1 1
8.9 -1.1 -0.2 112 0 1 1
8.9 1.8 0.1 122 0 1 5
8.9 3.8 0.7 135 0 1 5
9 -9.4 2.3 144 0 1 5
9 -8.3 2 132 0 1 5
9 -6.6 0.8 153 0 1 5
9 -6.3 0 130 0 1 1
9 -5.9 0 140 0 1 1
9 -5.5 -0.1 147 0 1 1
9 -0.8 -0.1 123 0 1 1
9 -0.4 0 142 0 1 1
9 -0.1 0 153 0 1 1
9 0.3 0 141 0 1 1
9 0.7 0 146 0 1 1
9 1.1 0 147 0 1 1
9 2.7 0.5 134 0 1 5
9 3.3 0.6 135 0 1 5
9.1 -9 2.2 123 0 1 5
9.1 -7.8 1.8 150 0 1 5
9.1 -6.1 0.4 156 0 1 5
9.1 -5 -0.2 150 0 1 1
9.1 -1.1 -0.2 81 0 1 1
9.1 2.1 0.3 116 0 1 5
9.1 4.1 0.8 130 0 1 5
9.2 -10.2 2.4 133 0 1 5
9.2 -8.5 2.2 120 0 1 5
9.2 -7.3 1.5 164 0 1 5
9.2 -6 0.3 160 0 1 5
9.2 -5.9 0.2 158 0 1 5
9.2 -4.3 -0.6 149 0 1 4
9.2 -3.6 -0.9 142 0 1 4
9.2 -3.2 -0.9 134 0 1 4
9.2 -2.8 -0.9 143 0 1 4
9.2 -2.4 -0.9 131 0 1 4
9.2 1.5 0.2 118 0 1 5
9.2 3 0.7 159 0 1 5
9.2 3.6 0.8 155 0 1 5
9.3 -10.9 2.5 91 0 1 5
9.3 -9.7 2.3 144 0 1 5
9.3 -9.3 2.3 135 0 1 5
9.3 -8.1 2 146 0 1 5
9.3 -6.9 1.1 147 0 1 5
9.3 -5 -0.2 153 0 1 1
9.3 -1.1 -0.2 113 0 1 1
9.3 1 0 126 0 1 5
9.3 2.4 0.6 144 0 1 5
9.3 3.9 0.9 166 0 1 5
9.3 4.5 1 135 0 1 5
9.4 -10.5 2.5 97 0 1 5
9.4 -8.8 2.2 91 0 1 5
9.4 -7.6 1.8 160 0 1 5
9.4 -6.4 0.7 155 0 1 5
9.4 -6.3 0 130 0 1 1
9.4 -6.1 0.3 154 0 1 5
9.4 -5.9 0 143 0 1 1
9.4 -0.4 0 126 0 1 1
9.4 -0.1 0 140 0 1 1
9.4 0.3 0 136 0 1 1
9.4 0.7 0 128 0 1 1
9.4 1.9 0.4 124 0 1 5
9.4 3.3 0.8 170 0 1 5
9.5 -10 2.4 118 0 1 5
9.5 -8.4 2.1 139 0 1 5
9.5 -7.2 1.4 161 0 1 5
9.5 -5 -0.2 147 0 1 1
9.5 -3.6 -0.9 144 0 1 4
9.5 -3.2 -0.9 143 0 1 4
9.5 -2.8 -0.9 123 0 1 4
9.5 -2.4 -0.9 130 0 1 4
9.5 -2 -0.9 141 0 1 4
9.5 -1.1 -0.2 86 0 1 1
9.5 0.7 0 113 0 1 5
9.5 1.3 0.2 108 0 1 5
9.5 2.7 0.7 156 0 1 5
9.5 4.2 1.1 170 0 1 5
9.5 4.8 1.1 132 0 1 5
9.6 -7.9 2 135 0 1 5
9.6 -6.7 1 144 0 1 5
9.6 -4.3 -0.6 150 0 1 4
9.6 1.6 0.5 134 0 1 5
9.6 2.2 0.6 155 0 1 5
9.6 3.6 0.9 166 0 1 5
9.7 -9.1 2.2 139 0 1 5
9.7 -7.5 1.7 160 0 1 5
9.7 -6.3 0.6 145 0 1 5
9.7 -5.5 -0.1 145 0 1 1
9.7 -5 -0.2 151 0 1 1
9.7 -1.1 -0.2 70 0 1 1
9.7 -0.8 -0.1 87 0 1 1
9.7 1 0.3 113 0 1 5
9.7 3.1 0.8 157 0 1 5
9.7 4.5 1.2 164 0 1 5
9.8 -8.7 2.2 93 0 1 5
9.8 -7 1.3 148 0 1 5
9.8 -6.7 0 138 0 1 1
9.8 -6.3 0 140 0 1 1
9.8 -5.9 0 146 0 1 1
9.8 -5.9 0.2 140 0 1 5
9.8 -5.8 0.2 143 0 1 5
9.8 -0.4 0 114 0 1 1
9.8 -0.1 0 140 0 1 1
9.8 0.5 0.1 121 0 1 5
9.8 1.9 0.7 154 0 1 5
9.8 2.5 0.7 160 0 1 5
9.8 3.9 1 163 0 1 5
9.9 -8.2 2.1 116 0 1 5
9.9 -6.6 0.8 148 0 1 5
9.9 -5.8 0.2 144 0 1 5
9.9 -5 -0.2 150 0 1 1
9.9 -3.6 -0.9 145 0 1 4
9.9 -3.2 -0.9 138 0 1 4
9.9 -2.8 -0.9 137 0 1 4
9.9 -2.4 -0.9 132 0 1 4
9.9 -2 -0.9 144 0 1 4
9.9 -1.6 -0.9 145 0 1 4
9.9 -1.1 -0.2 62 0 1 1
9.9 -0.1 0 123 0 1 5
9.9 1.4 0.6 131 0 1 5
9.9 3.4 0.9 158 0 1 5
9.9 4.8 1.3 171 0 1 5
10 -7.7 1.9 160 0 1 5
10 -4.3 -0.6 132 0 1 4
10 0.8 0.4 136 0 1 5
10 2.2 0.7 154 0 1 5
10 2.8 0.7 157 0 1 5
10 4.3 1.2 153 0 1 5
10.1 -8.5 2.1 116 0 1 5
10.1 -7.3 1.6 155 0 1 5
10.1 -6.7 0 139 0 1 1
10.1 -6.3 0 147 0 1 1
10.1 -5.9 0 139 0 1 1
10.1 -5 -0.2 146 0 1 1
10.1 -1.1 -0.2 83 0 1 1
10.1 -0.4 0 117 0 1 1
10.1 0.3 0.2 139 0 1 5
10.1 1.7 0.6 151 0 1 5
10.1 3.1 0.8 155 0 1 5
10.1 3.7 1 145 0 1 5
10.2 -8 2 145 0 1 5
10.2 -6.8 1.1 147 0 1 5
10.2 -5.9 0.2 149 0 1 5
10.2 -0.3 0 137 0 1 5
10.2 2.6 0.7 151 0 1 5
10.2 4.6 1.3 159 0 1 5
10.3 -7.6 1.7 139 0 1 5
10.3 -6.4 0.7 143 0 1 5
10.3 -5 -0.2 148 0 1 1
10.3 -3.6 -0.9 147 0 1 4
10.3 -3.2 -0.9 131 0 1 4
10.3 -2.8 -0.9 138 0 1 4
10.3 -2.4 -0.9 135 0 1 4
10.3 -2 -0.9 137 0 1 4
10.3 -1.6 -0.9 128 0 1 4
10.3 -1.1 -0.2 81 0 1 1
10.3 0.6 0.3 143 0 1 5
10.3 2 0.6 137 0 1 5
10.3 4 1 147 0 1 5
10.4 -8.3 2.1 135 0 1 5
10.4 -7.1 1.4 149 0 1 5
10.4 -5.9 0.2 124 0 1 5
10.4 -4.3 -0.6 142 0 1 4
10.4 0 0.1 140 0 1 5
10.4 4.9 1.4 161 0 1 5
10.5 -7.9 1.9 147 0 1 5
10.5 -6.7 0 129 0 1 1
10.5 -6.7 0.9 138 0 1 5
10.5 -6.3 0 134 0 1 1
10.5 -5.9 0 143 0 1 1
10.5 -5.5 -0.1 150 0 1 1
10.5 -5 -0.2 149 0 1 1
10.5 -4.7 -0.4 133 0 1 4
10.5 -1.1 -0.2 75 0 1 1
10.5 -0.8 -0.1 131 0 1 1
10.5 -0.4 0 143 0 1 1
10.5 0.9 0.3 145 0 1 5
10.5 4.3 1.2 132 0 1 5
10.6 -7.4 1.6 148 0 1 5
10.6 -6.2 0.5 131 0 1 5
10.6 -5.9 0.2 131 0 1 5
10.6 -4 -0.8 164 0 1 4
10.6 0.3 0.2 143 0 1 5
10.6 4.6 1.3 138 0 1 5
10.6 5.2 1.5 164 0 1 5
10.7 -7 1.1 142 0 1 5
10.7 -3.6 -0.9 144 0 1 4
10.7 -3.2 -0.9 140 0 1 4
10.7 -2.8 -0.9 136 0 1 4
10.7 -2.4 -0.9 133 0 1 4
10.7 -2 -0.9 127 0 1 4
10.7 -1.6 -0.9 140 0 1 4
10.7 -1.1 -0.2 99 0 1 1
10.7 -0.2 0 142 0 1 5
10.8 -8.2 2 158 0 1 5
10.8 -6.5 0.7 92 0 1 5
10.8 5 1.4 152 0 1 5
10.9 -7.7 1.7 146 0 1 5
10.9 -6.7 0 145 0 1 1
10.9 -6.3 0 137 0 1 1
10.9 -6.1 0.3 129 0 1 5
10.9 -5.9 0 135 0 1 1
10.9 -5.9 0.2 135 0 1 5
10.9 -5.5 -0.1 156 0 1 1
10.9 -5 -0.2 152 0 1 1
10.9 -3.6 -0.9 148 0 1 4
10.9 -1.1 -0.2 117 0 1 1
10.9 -0.4 0 145 0 1 1
10.9 4.4 1 145 0 1 5
11 -8.4 2.1 139 0 1 5
11 -7.2 1.3 128 0 1 5
11 -6.8 0.9 130 0 1 5
11 5.3 1.5 163 0 1 5
11.1 -8 1.9 157 0 1 5
11.1 -6.3 0.5 139 0 1 5
11.1 -3.6 -0.9 145 0 1 4
11.1 -3.2 -0.9 135 0 1 4
11.1 -2.8 -0.9 129 0 1 4
11.1 -2.4 -0.9 121 0 1 4
11.1 -2 -0.9 110 0 1 4
11.1 -1.6 -0.9 126 0 1 4
11.1 -1.1 -0.2 112 0 1 1
11.1 4.7 1.2 133 0 1 5
11.2 -7.5 1.5 118 0 1 5
11.2 -6 0.2 147 0 1 5
11.2 -4.3 -0.6 134 0 1 4
11.2 5.6 1.6 166 0 1 5
11.3 -8.3 1.9 154 0 1 5
11.3 -7.1 1.1 147 0 1 5
11.3 -6.3 0 137 0 1 1
11.3 -5.9 0 154 0 1 1
11.3 -5.5 -0.1 130 0 1 1
11.3 -5 -0.2 139 0 1 1
11.3 -3.6 -0.9 144 0 1 4
11.3 -1.1 -0.2 74 0 1 1
11.3 -0.8 -0.1 128 0 1 1
11.3 -0.4 0 147 0 1 1
11.3 -0.1 0 126 0 1 1
11.3 5 1.4 146 0 1 5
11.4 -7.8 1.7 152 0 1 5
11.4 -6.6 0.7 142 0 1 5
11.5 -7.4 1.3 146 0 1 5
11.5 -6.2 0.3 139 0 1 5
11.5 -5.9 0.2 141 0 1 5
11.5 -3.6 -0.9 132 0 1 4
11.5 -3.2 -0.9 137 0 1 4
11.5 -2.8 -0.9 122 0 1 4
11.5 -1.1 -0.2 116 0 1 1
11.5 5.3 1.5 153 0 1 5
11.6 -8.6 2 150 0 1 5
11.6 -6.9 0.9 133 0 1 5
11.6 -2.6 -0.8 101 0 1 4
11.6 -2.4 -0.6 100 0 1 4
11.6 -2 -0.6 105 0 1 4
11.6 -1.6 -0.6 90 0 1 4
11.6 -1.4 -0.3 61 0 1 4
11.6 4.8 1.1 130 0 1 5
11.7 -9.3 2.2 124 0 1 5
11.7 -8.1 1.8 158 0 1 5
11.7 -7.7 1.5 152 0 1 5
11.7 -6.5 0.5 143 0 1 5
11.7 -6.3 0 141 0 1 1
11.7 -5.9 0 140 0 1 1
11.7 -5.5 -0.1 149 0 1 1
11.7 -5 -0.2 143 0 1 1
11.7 -4 -0.8 122 0 1 4
11.7 -1.2 -0.1 113 0 1 1
11.7 -0.4 0 120 0 1 1
11.7 -0.1 0 145 0 1 1
11.7 0.3 0 135 0 1 1
11.7 5.6 1.7 161 0 1 5
11.8 -10 2.2 126 0 1 5
11.8 -8.8 2.1 142 0 1 5
11.8 -7.2 1.1 150 0 1 5
11.8 -6.1 0.3 145 0 1 5
11.8 4.5 0.9 134 0 1 5
11.8 5.1 1.3 117 0 1 5
11.9 -9.6 2.3 125 0 1 5
11.9 -8.4 1.9 158 0 1 5
11.9 -6.7 0.7 153 0 1 5
11.9 -3.6 -0.9 135 0 1 4
11.9 -3.2 -0.9 126 0 1 4
11.9 -1.2 -0.1 114 0 1 1
11.9 6 1.8 144 0 1 5
12 -9.1 2.3 131 0 1 5
12 -7.9 1.6 150 0 1 5
12 -6.3 0.4 151 0 1 5
12 -4.7 -0.4 148 0 1 4
12 -4.3 -0.6 153 0 1 4
12 -2.7 -0.6 51 0 1 4
12 4.8 1.2 121 0 1 5
12 5.4 1.6 140 0 1 5
12.1 -10.3 2.3 124 0 1 5
12.1 -8.7 2.1 153 0 1 5
12.1 -7.5 1.3 147 0 1 5
12.1 -6.3 0 103 0 1 1
12.1 -5.9 0 149 0 1 1
12.1 -5.9 0.1 143 0 1 5
12.1 -5.5 -0.1 155 0 1 1
12.1 -5 -0.2 159 0 1 1
12.1 -2.7 -0.2 72 0 1 4
12.1 -2.3 -0.2 121 0 1 1
12.1 -2.1 -0.2 122 0 1 1
12.1 -1.9 -0.2 103 0 1 1
12.1 -1.7 -0.2 93 0 1 1
12.1 -1.6 -0.1 103 0 1 1
12.1 -1.4 -0.1 105 0 1 1
12.1 -1.2 0 131 0 1 1
12.1 -0.8 0 140 0 1 1
12.1 -0.4 0 142 0 1 1
12.1 -0.1 0 135 0 1 1
12.1 0.3 0 145 0 1 1
12.1 4.2 0.8 122 0 1 5
12.1 5.7 1.8 171 0 1 5
12.2 -9.9 2.4 118 0 1 5
12.2 -8.2 1.8 145 0 1 5
12.2 -7 0.9 152 0 1 5
12.2 0.3 -0.1 139 0 1 5
12.2 5.1 1.4 128 0 1 5
12.3 -10.6 2.3 101 0 1 5
12.3 -9.4 2.4 130 0 1 5
12.3 -7.8 1.4 154 0 1 5
12.3 -6.6 0.6 140 0 1 5
12.3 -5.1 -0.2 161 0 1 1
12.3 -2.5 -0.2 137 0 1 1
12.3 4.6 1 138 0 1 5
12.3 6 2 154 0 1 5
12.4 -10.2 2.5 106 0 1 5
12.4 -9 2.2 147 0 1 5
12.4 -8.5 1.9 154 0 1 5
12.4 -7.3 1.1 144 0 1 5
12.4 -6.2 0.3 149 0 1 5
12.4 -4.5 -0.3 136 0 1 4
12.4 -3.9 -0.6 115 0 1 4
12.4 -3.5 -0.6 104 0 1 4
12.4 -3.1 -0.6 60 0 1 4
12.4 -2.9 -0.3 64 0 1 4
12.4 0.5 0 148 0 1 5
12.4 3.4 0.4 157 0 1 5
12.4 4 0.7 145 0 1 5
12.4 5.4 1.7 135 0 1 5
12.5 -9.7 2.5 126 0 1 5
12.5 -8.1 1.6 148 0 1 5
12.5 -6.9 0.7 154 0 1 5
12.5 -6.3 0 146 0 1 1
12.5 -5.9 0 148 0 1 1
12.5 -5.1 -0.1 153 0 1 1
12.5 -2.7 -0.1 132 0 1 1
12.5 -2 -0.1 128 0 1 1
12.5 -1.2 0 141 0 1 1
12.5 -0.8 0 125 0 1 1
12.5 -0.4 0 101 0 1 1
12.5 0 0 135 0 1 5
12.5 1.4 0.1 134 0 1 5
12.5 2.9 0.4 138 0 1 5
12.5 4.9 1.3 123 0 1 5
12.6 -10.4 2.5 119 0 1 5
12.6 -9.3 2.4 157 0 1 5
12.6 -7.6 1.2 148 0 1 5
12.6 -6.4 0.4 148 0 1 5
12.6 0.8 0.2 110 0 1 5
12.6 2.3 0.3 120 0 1 5
12.6 3.7 0.7 131 0 1 5
12.6 4.3 0.9 130 0 1 5
12.6 5.8 2.1 163 0 1 5
12.7 -10 2.5 131 0 1 5
12.7 -8.8 2.1 154 0 1 5
12.7 -7.2 0.9 155 0 1 5
12.7 -6 0.1 145 0 1 5
12.7 -5.1 -0.1 150 0 1 1
12.7 -2.8 -0.1 131 0 1 1
12.7 -0.3 0 114 0 1 5
12.7 0.3 0.2 116 0 1 5
12.7 1.1 0.3 120 0 1 5
12.7 1.7 0.3 129 0 1 5
12.7 3.2 0.6 115 0 1 5
12.7 5.2 1.6 102 0 1 5
12.8 -9.5 2.4 151 0 1 5
12.8 -8.3 1.8 147 0 1 5
12.8 -6.7 0.6 131 0 1 5
12.8 -6 0.1 146 0 1 5
12.8 0.6 0.3 126 0 1 5
12.8 2.6 0.5 115 0 1 5
12.8 4.1 0.9 131 0 1 5
12.8 4.6 1.2 128 0 1 5
12.8 6.1 2.2 170 0 1 5
12.9 -10.7 2.4 114 0 1 5
12.9 -9.1 2.2 161 0 1 5
12.9 -7.9 1.4 129 0 1 5
12.9 -6.3 0 135 0 1 1
12.9 -5.9 0 148 0 1 1
12.9 -5.5 0 140 0 1 1
12.9 -5.1 0 143 0 1 1
12.9 -4.9 -0.1 145 0 1 1
12.9 -4.7 -0.1 149 0 1 1
12.9 -4.5 -0.2 135 0 1 1
12.9 -4.2 -0.2 139 0 1 1
12.9 -4.1 -0.2 136 0 1 1
12.9 -3.9 -0.2 130 0 1 1
12.9 -3.7 -0.2 99 0 1 1
12.9 -3.5 -0.2 124 0 1 1
12.9 -3.3 -0.2 94 0 1 1
12.9 -3.1 -0.1 103 0 1 1
12.9 -3 -0.1 118 0 1 1
12.9 -2.8 0 136 0 1 1
12.9 -2.4 0 129 0 1 1
12.9 -2 0 128 0 1 1
12.9 -1.6 0 138 0 1 1
12.9 -1.2 0 132 0 1 1
12.9 -0.8 0 111 0 1 1
12.9 -0.4 0 120 0 1 1
12.9 0 0.3 122 0 1 5
12.9 1.5 0.5 102 0 1 5
12.9 2 0.5 110 0 1 5
12.9 3.5 0.8 122 0 1 5
12.9 4.9 1.5 124 0 1 5
12.9 5.5 1.9 137 0 1 5
13 -10.3 2.5 82 0 1 5
13 -9.8 2.5 131 0 1 5
13 -8.6 1.9 152 0 1 5
13 -7.4 1 147 0 1 5
13 -6 0.1 148 0 1 5
13 0.9 0.5 127 0 1 5
13 2.9 0.7 98 0 1 5
13 4.4 1.2 135 0 1 5
13 6.4 2.4 160 0 1 5
13.1 -9.4 2.3 123 0 1 5
13.1 -8.2 1.5 144 0 1 5
13.1 -7 0.7 155 0 1 5
13.1 0.3 0.4 130 0 1 5
13.1 1.8 0.7 109 0 1 5
13.1 2.3 0.7 93 0 1 5
13.1 3.8 1 127 0 1 5
13.1 5.3 1.8 116 0 1 5
13.1 5.8 2.3 159 0 1 5
13.2 -8.9 2.1 160 0 1 5
13.2 -7.7 1.2 148 0 1 5
13.2 -6.5 0.4 151 0 1 5
13.2 -0.2 0.1 123 0 1 5
13.2 1.2 0.6 108 0 1 5
13.2 2.7 0.9 105 0 1 5
13.2 3.2 1 109 0 1 5
13.2 4.7 1.5 133 0 1 5
13.3 -8.5 1.7 118 0 1 5
13.3 -7.3 0.8 151 0 1 5
13.3 -6.3 0 143 0 1 1
13.3 -6.1 0.1 145 0 1 5
13.3 -6 0.1 145 0 1 5
13.3 -5.9 0 144 0 1 1
13.3 -5.5 0 138 0 1 1
13.3 -5.1 0 129 0 1 1
13.3 -4.3 -0.1 141 0 1 1
13.3 -3.5 -0.1 138 0 1 1
13.3 -2.8 0 148 0 1 1
13.3 -2.4 0 143 0 1 1
13.3 -2 0 135 0 1 1
13.3 -1.6 0 118 0 1 1
13.3 -1.2 0 106 0 1 1
13.3 -0.8 0 115 0 1 1
13.3 -0.4 0 130 0 1 1
13.3 0.6 0.6 103 0 1 5
13.3 2.1 0.9 96 0 1 5
13.3 4.1 1.3 132 0 1 5
13.3 5.6 2.1 139 0 1 5
13.3 6.1 2.4 171 0 1 5
13.4 -8 1.3 137 0 1 5
13.4 -6.8 0.5 148 0 1 5
13.4 0.1 0.4 110 0 1 5
13.4 1.5 0.8 109 0 1 5
13.4 3 1.2 97 0 1 5
13.4 3.5 1.2 113 0 1 5
13.4 5 1.8 132 0 1 5
13.5 -7.6 0.9 148 0 1 5
13.5 -6.4 0.3 152 0 1 5
13.5 -6 0 143 0 1 5
13.5 0.4 0.6 116 0 1 5
13.5 1 0.8 121 0 1 5
13.5 2.4 1.1 100 0 1 5
13.5 4.4 1.5 145 0 1 5
13.5 5.9 2.3 91 0 1 5
13.5 6.5 2.5 144 0 1 5
13.6 -8.7 1.8 120 0 1 5
13.6 -7.1 0.7 147 0 1 5
13.6 -0.2 0.3 103 0 1 5
13.6 1.8 1.1 98 0 1 5
13.6 3.3 1.4 110 0 1 5
13.6 3.9 1.4 112 0 1 5
13.6 5.3 2 132 0 1 5
13.7 -8.3 1.4 135 0 1 5
13.7 -6.6 0.4 145 0 1 5
13.7 -5.9 0 147 0 1 1
13.7 -5.5 0 119 0 1 1
13.7 -5.1 0 146 0 1 1
13.7 -4.8 0 151 0 1 1
13.7 -4.4 0 119 0 1 1
13.7 -4 0 138 0 1 1
13.7 -3.6 0 148 0 1 1
13.7 -3.2 0 130 0 1 1
13.7 -2.8 0 142 0 1 1
13.7 -2.4 0 141 0 1 1
13.7 -2 0 137 0 1 1
13.7 -1.6 0 146 0 1 1
13.7 -1.2 0 104 0 1 1
13.7 -0.8 0 112 0 1 1
13.7 0.7 0.9 112 0 1 5
13.7 1.3 1 111 0 1 5
13.7 2.7 1.4 82 0 1 5
13.7 4.7 1.7 164 0 1 5
13.7 6.2 2.4 133 0 1 5
13.8 -7.8 1.1 142 0 1 5
13.8 -6.2 0.1 138 0 1 5
13.8 -6 0 142 0 1 5
13.8 0.1 0.6 120 0 1 5
13.8 2.2 1.4 94 0 1 5
13.8 3.6 1.6 107 0 1 5
13.8 4.2 1.6 139 0 1 5
13.8 5.6 2.1 140 0 1 5
13.9 -8.6 1.5 130 0 1 5
13.9 -7.4 0.7 143 0 1 5
13.9 -6 0 135 0 1 5
13.9 -0.4 0.1 106 0 1 5
13.9 1 1.1 101 0 1 5
13.9 1.6 1.3 91 0 1 5
13.9 3 1.7 93 0 1 5
13.9 4.5 1.8 164 0 1 5
13.9 5.1 1.9 143 0 1 5
13.9 6.5 2.5 146 0 1 5
14 -8.1 1.2 140 0 1 5
14 -6.9 0.5 151 0 1 5
14 0.4 0.9 112 0 1 5
14 1.9 1.6 93 0 1 5
14 2.5 1.7 80 0 1 5
14 3.9 1.8 125 0 1 5
14 5.9 2.3 129 0 1 5
14.1 -7.7 0.8 95 0 1 5
14.1 -6.5 0.2 148 0 1 5
14.1 -6.2 0 144 0 1 5
14.1 -5.9 0 148 0 1 1
14.1 -5.5 0 133 0 1 1
14.1 -5.1 0 152 0 1 1
14.1 -4.8 0 149 0 1 1
14.1 -4.4 0 143 0 1 1
14.1 -4 0 157 0 1 1
14.1 -3.6 0 133 0 1 1
14.1 -3.2 0 145 0 1 1
14.1 -2.8 0 141 0 1 1
14.1 -2.4 0 115 0 1 1
14.1 -2 0 129 0 1 1
14.1 -1.6 0 97 0 1 1
14.1 -1.2 0 107 0 1 1
14.1 -0.8 0 126 0 1 1
14.1 -0.1 0.5 94 0 1 5
14.1 1.3 1.4 92 0 1 5
14.1 3.4 1.9 104 0 1 5
14.1 4.8 1.9 172 0 1 5
14.1 5.4 2 157 0 1 5
14.2 -7.2 0.6 133 0 1 5
14.2 -0.7 0 111 0 1 5
14.2 0.8 1.2 101 0 1 5
14.2 2.2 1.9 95 0 1 5
14.2 2.8 1.9 97 0 1 5
14.2 4.2 1.9 143 0 1 5
14.3 -8 0.9 150 0 1 5
14.3 -6.8 0.3 150 0 1 5
14.3 -0.4 0.3 97 0 1 5
14.3 0.2 0.8 106 0 1 5
14.3 1.6 1.7 94 0 1 5
14.3 3.7 2 127 0 1 5
14.3 5.1 2 172 0 1 5
14.3 5.7 2.1 144 0 1 5
14.4 -7.5 0.6 134 0 1 5
14.4 -6.3 0.1 149 0 1 5
14.4 -6.2 0 134 0 1 5
14.4 1.1 1.5 102 0 1 5
14.4 2.5 2.1 126 0 1 5
14.4 3.1 2.1 124 0 1 5
14.4 4.6 2 148 0 1 5
14.5 -7.1 0.4 102 0 1 5
14.5 -5.9 0 133 0 1 1
14.5 -5.5 0 151 0 1 1
14.5 -5.1 0 133 0 1 1
14.5 -4.8 0 143 0 1 1
14.5 -4.4 0 151 0 1 1
14.5 -4 0 137 0 1 1
14.5 -3.6 0 118 0 1 1
14.5 -3.2 0 133 0 1 1
14.5 -2.8 0 143 0 1 1
14.5 -2.4 0 117 0 1 1
14.5 -2 0 136 0 1 1
14.5 -1.6 0 95 0 1 1
14.5 -1.2 0 125 0 1 1
14.5 -0.1 0.7 104 0 1 5
14.5 0.5 1.1 82 0 1 5
14.5 2 2 116 0 1 5
14.5 4 2.1 139 0 1 5
14.5 5.4 2 154 0 1 5
14.6 -6.6 0.1 150 0 1 5
14.6 -0.6 0.2 101 0 1 5
14.6 1.4 1.8 105 0 1 5
14.6 2.8 2.3 170 0 1 5
14.6 3.4 2.2 137 0 1 5
14.6 4.9 2 150 0 1 5
14.7 -7.8 0.7 142 0 1 5
14.7 -6.3 0 149 0 1 5
14.7 0.2 1.1 97 0 1 5
14.7 0.8 1.5 95 0 1 5
14.7 2.3 2.2 135 0 1 5
14.7 3.7 2.3 141 0 1 5
14.7 4.3 2.1 129 0 1 5
14.8 -6.9 0.2 155 0 1 5
14.8 -0.3 0.6 108 0 1 5
14.8 1.7 2 122 0 1 5
14.8 3.2 2.4 178 0 1 5
14.9 -6.3 0 115 0 1 1
14.9 -5.9 0 129 0 1 1
14.9 -5.5 0 133 0 1 1
14.9 -5.1 0 141 0 1 1
14.9 -4.8 0 158 0 1 1
14.9 -4.4 0 127 0 1 1
14.9 -4 0 159 0 1 1
14.9 -3.6 0 140 0 1 1
14.9 -3.2 0 142 0 1 1
14.9 -2.8 0 114 0 1 1
14.9 -2.4 0 148 0 1 1
14.9 -2 0 129 0 1 1
14.9 -1.6 0 100 0 1 1
14.9 -1.2 0 123 0 1 1
14.9 -0.9 0.1 113 0 1 5
14.9 0.6 1.3 115 0 1 5
14.9 1.1 1.7 118 0 1 5
14.9 2.6 2.4 100 0 1 5
14.9 4 2.3 149 0 1 5
14.9 4.6 2.1 138 0 1 5
15 0 0.9 95 0 1 5
15 1.4 1.9 124 0 1 5
15 2 2.2 93 0 1 5
15 3.5 2.5 165 0 1 5
15.1 -1.1 0 119 0 1 5
15.1 -0.6 0.4 98 0 1 5
15.1 0.9 1.6 82 0 1 5
15.1 2.9 2.4 150 0 1 5
15.1 4.4 2.2 117 0 1 5
15.1 4.9 2 145 0 1 5
15.2 -6.7 0 142 0 1 5
15.2 -6.3 0 141 0 1 1
15.2 -5.9 0 134 0 1 1
15.2 -5.5 0 152 0 1 1
15.2 -5.1 0 144 0 1 1
15.2 -4.8 0 144 0 1 1
15.2 -4.4 0 142 0 1 1
15.2 -4 0 119 0 1 1
15.2 -3.6 0 133 0 1 1
15.2 -3.2 0 142 0 1 1
15.2 -2.8 0 141 0 1 1
15.2 -2.4 0 135 0 1 1
15.2 -2 0 100 0 1 1
15.2 -1.6 0 140 0 1 1
15.2 -1.2 0 143 0 1 1
15.2 0.3 1.2 95 0 1 5
15.2 2.3 2.3 132 0 1 5
15.2 3.8 2.5 140 0 1 5
15.3 -0.8 0.3 111 0 1 5
15.3 -0.3 0.8 118 0 1 5
15.3 3.2 2.5 135 0 1 5
15.3 4.7 2.1 122 0 1 5
15.4 -7 0 149 0 1 5
15.4 2.6 2.4 150 0 1 5
15.4 4.1 2.4 111 0 1 5
15.5 -0.5 0.6 109 0 1 5
15.5 0.1 1 115 0 1 5
15.5 3.5 2.5 168 0 1 5
15.5 5 2 144 0 1 5
15.6 -6.7 0 133 0 1 1
15.6 -6.3 0 142 0 1 1
15.6 -5.9 0 135 0 1 1
15.6 -5.5 0 151 0 1 1
15.6 -5.1 0 144 0 1 1
15.6 -4.8 0 151 0 1 1
15.6 -4.4 0 138 0 1 1
15.6 -4 0 157 0 1 1
15.6 -3.6 0 129 0 1 1
15.6 -3.2 0 142 0 1 1
15.6 -2.8 0 151 0 1 1
15.6 -2.4 0 141 0 1 1
15.6 -2 0 106 0 1 1
15.6 -1.6 0 141 0 1 1
15.6 -1.2 0 106 0 1 1
15.6 -1.1 0.1 110 0 1 5
15.6 4.4 2.3 117 0 1 5
15.7 -0.2 0.8 94 0 1 5
15.7 3.8 2.5 151 0 1 5
15.7 5.3 2 142 0 1 5
15.8 -0.8 0.4 101 0 1 5
15.8 6.2 2.1 158 0 1 5
15.9 5.6 2 144 0 1 5
16 -7.1 0 134 0 1 1
16 -6.7 0 136 0 1 1
16 -6.3 0 146 0 1 1
16 -5.9 0 142 0 1 1
16 -5.5 0 114 0 1 1
16 -5.1 0 149 0 1 1
16 -4.8 0 145 0 1 1
16 -4.4 0 147 0 1 1
16 -4 0 150 0 1 1
16 -3.6 0 138 0 1 1
16 -3.2 0 142 0 1 1
16 -2.8 0 146 0 1 1
16 -2.4 0 146 0 1 1
16 -2 0 144 0 1 1
16 -1.6 0 146 0 1 1
16 5 2.1 121 0 1 5
16.1 -1 0.1 104 0 1 5
16.1 5.9 2.1 170 0 1 5
16.2 5.4 2.1 148 0 1 5
16.3 -1.3 0 143 0 1 5
16.3 6.2 2.1 142 0 1 5
16.4 -7.1 0 150 0 1 1
16.4 -6.7 0 130 0 1 1
16.4 -6.3 0 141 0 1 1
16.4 -5.9 0 135 0 1 1
16.4 -5.5 0 130 0 1 1
16.4 -5.1 0 150 0 1 1
16.4 -4.8 0 148 0 1 1
16.4 -4.4 0 150 0 1 1
16.4 -4 0 141 0 1 1
16.4 -3.6 0 130 0 1 1
16.4 -3.2 0 143 0 1 1
16.4 -2.8 0 146 0 1 1
16.4 -2.4 0 137 0 1 1
16.4 -2 0 127 0 1 1
16.4 -1.6 0 141 0 1 1
16.4 5.7 2.1 142 0 1 5
16.8 -7.5 0 156 0 1 1
16.8 -7.1 0 148 0 1 1
16.8 -6.7 0 132 0 1 1
16.8 -6.3 0 127 0 1 1
16.8 -5.9 0 146 0 1 1
16.8 -5.5 0 152 0 1 1
16.8 -5.1 0 151 0 1 1
16.8 -4.8 0 149 0 1 1
16.8 -4.4 0 145 0 1 1
16.8 -4 0 137 0 1 1
16.8 -3.6 0 156 0 1 1
16.8 -3.2 0 137 0 1 1
16.8 -2.8 0 141 0 1 1
16.8 -2.4 0 134 0 1 1
16.8 -2 0 144 0 1 1
16.8 -1.6 0 130 0 1 1
16.8 -1.2 0 137 0 1 1
17.2 -7.9 0 137 0 1 1
17.2 -7.5 0 153 0 1 1
17.2 -7.1 0 148 0 1 1
17.2 -6.7 0 145 0 1 1
17.2 -6.3 0 143 0 1 1
17.2 -5.9 0 143 0 1 1
17.2 -5.5 0 116 0 1 1
17.2 -5.1 0 152 0 1 1
17.2 -4.8 0 150 0 1 1
17.2 -4.4 0 153 0 1 1
17.2 -4 0 153 0 1 1
17.2 -3.6 0 157 0 1 1
17.2 -3.2 0 135 0 1 1
17.2 -2.8 0 143 0 1 1
17.2 -2.4 0 139 0 1 1
17.2 -2 0 141 0 1 1
17.2 -1.6 0 149 0 1 1
17.2 -1.2 0 148 0 1 1
17.6 -8.3 0 145 0 1 1
17.6 -7.9 0 136 0 1 1
17.6 -7.5 0 142 0 1 1
17.6 -7.1 0 148 0 1 1
17.6 -6.7 0 143 0 1 1
17.6 -6.3 0 147 0 1 1
17.6 -5.9 0 138 0 1 1
17.6 -5.5 0 109 0 1 1
17.6 -5.1 0 160 0 1 1
17.6 -4.8 0 149 0 1 1
17.6 -4.4 0 153 0 1 1
17.6 -4 0 131 0 1 1
17.6 -3.6 0 135 0 1 1
17.6 -3.2 0 129 0 1 1
17.6 -2.8 0 141 0 1 1
17.6 -2.4 0 142 0 1 1
17.6 -2 0 140 0 1 1
17.6 -1.6 0 148 0 1 1
17.6 -1.2 0 145 0 1 1
17.9 -8.3 0 145 0 1 1
18 -7.5 0 141 0 1 1
18 -7.1 0 125 0 1 1
18 -6.7 0 136 0 1 1
18 -6.3 0 135 0 1 1
18 -5.9 0 129 0 1 1
18 -5.5 0 136 0 1 1
18 -5.1 0 161 0 1 1
18 -4.8 0 154 0 1 1
18 -4.4 0 153 0 1 1
18 -4 0 150 0 1 1
18 -3.6 0 146 0 1 1
18 -3.2 0 143 0 1 1
18 -2.8 0 142 0 1 1
18 -2.4 0 148 0 1 1
18 -2 0 134 0 1 1
18 -1.2 0 151 0 1 1
18.1 -8.3 0 99 0 1 1
18.2 -8 0 120 0 1 1
18.4 -7.8 0 128 0 1 1
18.4 -7.7 0 127 0 1 1
18.4 -7.6 0 128 0 1 1
18.4 -7.5 0 132 0 1 1
18.4 -7.1 0 133 0 1 1
18.4 -6.7 0 142 0 1 1
18.4 -6.3 0 125 0 1 1
18.4 -5.9 0 141 0 1 1
18.4 -5.5 0 149 0 1 1
18.4 -5.1 0 151 0 1 1
18.4 -4.8 0 152 0 1 1
18.4 -4.4 0 154 0 1 1
18.4 -4 0 151 0 1 1
18.4 -3.6 0 155 0 1 1
18.4 -3.2 0 144 0 1 1
18.4 -2.8 0 140 0 1 1
18.4 -2.4 0 139 0 1 1
18.4 -2 0 148 0 1 1
18.4 -1.6 0 142 0 1 1
18.4 -1.2 0 147 0 1 1
18.5 -7.6 0 130 0 1 1
18.5 -7.5 0 134 0 1 1
18.5 -7.1 0 132 0 1 1
18.6 -7.1 0 133 0 1 1
18.6 -6.7 0 134 0 1 1
18.6 -6.3 0 118 0 1 1
18.7 -6.7 0 111 0 1 1
18.7 -5.9 0 126 0 1 1
18.8 -6.3 0 122 0 1 1
18.8 -5.1 0 115 0 1 1
18.8 -4.8 0 105 0 1 1
18.8 -4.4 0 153 0 1 1
18.8 -4 0 150 0 1 1
18.8 -3.6 0 144 0 1 1
18.8 -3.2 0 139 0 1 1
18.8 -2.8 0 128 0 1 1
18.8 -2.4 0 124 0 1 1
18.8 -2 0 141 0 1 1
18.8 -1.6 0 149 0 1 1
18.8 -1.2 0 149 0 1 1
19 -5.9 0 112 0 1 1
19.1 -5.6 0 127 0 1 1
19.2 -5.1 0 112 0 1 1
19.2 -4.8 0 90 0 1 1
19.2 -4.4 0 129 0 1 1
19.2 -4 0 151 0 1 1
19.2 -3.6 0 150 0 1 1
19.2 -3.2 0 134 0 1 1
19.2 -2.8 0 144 0 1 1
19.2 -2.4 0 132 0 1 1
19.2 -2 0 122 0 1 1
19.2 -1.6 0 148 0 1 1
19.2 -1.2 0 151 0 1 1
19.3 -4.8 0 85 0 1 1
19.4 -4.4 0 109 0 1 1
19.4 -3.6 0 152 0 1 1
19.4 -3.2 0 140 0 1 1
19.4 -2.8 0 141 0 1 1
19.4 -2.4 0 143 0 1 1
19.5 -4.1 -0.1 110 0 1 1
19.5 -2 0 128 0 1 1
19.5 -1.6 0 144 0 1 1
19.5 -1.2 0 154 0 1 1
19.6 -3.9 -0.1 120 0 1 1
19.6 -3.8 -0.1 104 0 1 1
19.6 -3.6 0 95 0 1 1
19.6 -3.2 0 118 0 1 1
19.7 -2.8 0 100 0 1 1
19.7 -2.4 0 138 0 1 1
19.8 -2 0 94 0 1 1
19.8 -1.6 0 140 0 1 1
19.8 -1.2 0 128 0 1 1
