-16.5 11.3 0 101 0 1 1
-16.3 11.3 0 110 0 1 1
-16.3 11.5 0 116 0 1 1
-16.1 11.3 0 113 0 1 1
-16.1 11.5 0 129 0 1 1
-16.1 11.8 0 122 0 1 1
-16 11.9 0 96 0 1 1
-15.8 12.1 0 103 0 1 1
-15.7 10.9 0 109 0 1 1
-15.7 11.3 0 132 0 1 1
-15.6 12.1 0 95 0 1 1
-15.6 12.4 0 81 0 1 1
-15.3 10.9 0 124 0 1 1
-15.3 11.3 0 113 0 1 1
-15.3 11.7 0 126 0 1 1
-15.3 12.1 0 98 0 1 1
-15 10.5 0 132 0 1 1
-15 10.9 0 128 0 1 1
-15 11.3 0 129 0 1 1
-14.6 10.5 0 133 0 1 1
-14.6 10.9 0 129 0 1 1
-14.6 11.3 0 103 0 1 1
-14.2 10.1 0 113 0 1 1
-14.2 10.5 0 128 0 1 1
-14.2 10.9 0 126 0 1 1
-13.8 10.1 0 125 0 1 1
-13.8 10.5 0 128 0 1 1
-13.4 9.8 0 126 0 1 1
-13.4 10.1 0 122 0 1 1
-13.2 10.3 0.2 96 0 1 3
-13.2 10.8 0.4 86 0 1 3
-13 9.8 0 129 0 1 1
-13 10.1 0 119 0 1 1
-13 10.8 0.5 56 0 1 3
-12.9 10.2 0.3 112 0 1 3
-12.9 10.7 0.4 62 0 1 3
-12.9 11.2 0.9 80 0 1 3
-12.8 10.7 0.8 63 0 1 3
-12.7 9.9 0 69 0 1 3
-12.7 10.4 0.3 100 0 1 3
-12.7 10.6 0.6 64 0 1 3
-12.6 9.8 0 123 0 1 1
-12.6 10.3 0.1 89 0 1 3
-12.6 10.5 0.5 48 0 1 3
-12.6 11.5 1.2 80 0 1 3
-12.5 10.4 0.4 49 0 1 3
-12.5 10.5 0.7 77 0 1 3
-12.4 11 1.2 78 0 1 3
-12.3 10.2 0.2 87 0 1 3
-12.3 10.8 1 111 0 1 3
-12.3 11.4 1.2 127 0 1 3
-12.2 9.4 0 130 0 1 1
-12.2 9.9 0 89 0 1 3
-12.2 10.2 0.5 65 0 1 3
-12.2 11.7 1.2 80 0 1 3
-12.1 10.9 1 118 0 1 3
-12.1 11.1 1.1 132 0 1 3
-12 9.7 0 96 0 1 3
-12 11.2 1.1 111 0 1 3
-11.9 9.7 0 69 0 1 3
-11.9 9.8 0.1 50 0 1 3
-11.9 10 0.5 57 0 1 3
-11.8 9 0 129 0 1 1
-11.8 9.4 0 99 0 1 1
-11.8 9.8 0 80 0 1 1
-11.8 9.8 0.2 78 0 1 3
-11.8 9.8 0.4 60 0 1 3
-11.8 10.8 1.1 111 0 1 3
-11.7 10.1 0.6 94 0 1 3
-11.7 10.6 0.8 107 0 1 3
-11.7 12.1 1 98 0 1 3
-11.6 9.8 0.2 69 0 1 3
-11.6 9.8 0.4 98 0 1 3
-11.6 10 0.5 108 0 1 3
-11.6 10.3 0.8 109 0 1 3
-11.4 9 0 121 0 1 1
-11.4 9.4 0 114 0 1 1
-11.4 9.8 0 133 0 1 1
-11.4 10.2 0.7 109 0 1 3
-11.4 10.8 1 120 0 1 3
-11.3 12.6 0.6 139 0 1 3
-11.1 10.1 0.5 104 0 1 3
-11.1 10.1 0.7 132 0 1 3
-11.1 10.3 0.8 128 0 1 3
-11.1 11.2 0.8 153 0 1 3
-11 8.6 0 132 0 1 1
-11 9 0 103 0 1 1
-11 9.4 0 123 0 1 1
-11 9.8 0 93 0 1 1
-11 10.1 0 93 0 1 1
-10.9 6.2 1.3 127 0 1 5
-10.9 12.2 0.6 135 0 1 3
-10.8 5.7 1.6 124 0 1 5
-10.7 6 1.3 120 0 1 5
-10.7 12.7 0.5 100 0 1 3
-10.6 5.5 1.5 146 0 1 5
-10.6 5.9 1.4 126 0 1 5
-10.6 6.4 1.1 121 0 1 5
-10.6 6.8 0.9 111 0 1 5
-10.6 8.6 0 123 0 1 1
-10.6 9 0 83 0 1 1
-10.6 9.4 0 122 0 1 1
-10.6 9.8 0 132 0 1 1
-10.6 10.1 0 131 0 1 1
-10.5 5.3 1.5 95 0 1 5
-10.5 6.2 1.1 120 0 1 5
-10.5 7.1 0.7 115 0 1 5
-10.5 10.4 0.1 98 0 1 3
-10.5 10.6 0.5 135 0 1 3
-10.4 5.7 1.3 121 0 1 5
-10.4 6.6 1 100 0 1 5
-10.4 6.9 0.7 116 0 1 5
-10.3 5.5 1.3 143 0 1 5
-10.3 6 1.2 125 0 1 5
-10.3 6.4 1 139 0 1 5
-10.3 7.3 0.5 126 0 1 5
-10.3 8.2 0 130 0 1 5
-10.2 5.9 1.1 138 0 1 5
-10.2 6.8 0.8 102 0 1 5
-10.2 7.7 0.3 131 0 1 5
-10.2 8 0 132 0 1 5
-10.2 8.2 0 125 0 1 1
-10.2 8.6 0 124 0 1 1
-10.2 9 0 101 0 1 1
-10.2 9.4 0 126 0 1 1
-10.2 9.8 0 134 0 1 1
-10.2 10.1 0 128 0 1 1
-10.2 10.5 0 128 0 1 1
-10.2 11.4 0.4 136 0 1 3
-10.1 5.3 1.1 108 0 1 5
-10.1 6.2 1 142 0 1 5
-10.1 6.6 0.8 128 0 1 5
-10.1 7.1 0.6 135 0 1 5
-10.1 7.5 0.3 128 0 1 5
-10 5.2 1 133 0 1 5
-10 5.7 1.1 134 0 1 5
-10 6.1 0.9 126 0 1 5
-10 7 0.6 136 0 1 5
-10 7.9 0.1 133 0 1 5
-9.9 5.5 0.9 124 0 1 5
-9.9 6.4 0.8 137 0 1 5
-9.9 7.3 0.4 134 0 1 5
-9.9 7.7 0.1 133 0 1 5
-9.9 8.2 0 126 0 1 1
-9.9 8.6 0 125 0 1 1
-9.9 9 0 130 0 1 1
-9.9 9.4 0 136 0 1 1
-9.9 9.8 0 130 0 1 1
-9.8 5 0.9 142 0 1 5
-9.8 5.9 0.8 135 0 1 5
-9.8 6.2 0.7 135 0 1 5
-9.8 6.8 0.6 108 0 1 5
-9.8 7.1 0.4 127 0 1 5
-9.7 5.3 0.8 135 0 1 5
-9.7 5.7 0.7 136 0 1 5
-9.7 6.6 0.5 127 0 1 5
-9.7 7.5 0.1 127 0 1 5
-9.6 4.8 0.7 157 0 1 5
-9.6 5.2 0.7 142 0 1 5
-9.6 6.1 0.6 134 0 1 5
-9.6 7 0.3 123 0 1 5
-9.6 7.3 0.2 127 0 1 5
-9.6 7.9 0 133 0 1 5
-9.5 5.5 0.6 135 0 1 5
-9.5 5.9 0.4 115 0 1 5
-9.5 6.4 0.4 120 0 1 5
-9.5 6.8 0.3 130 0 1 5
-9.5 7.8 0 134 0 1 1
-9.5 8.2 0 138 0 1 1
-9.5 8.6 0 141 0 1 1
-9.5 9 0 125 0 1 1
-9.5 9.4 0 135 0 1 1
-9.4 5 0.6 137 0 1 5
-9.4 5.4 0.5 119 0 1 5
-9.4 6.3 0.3 140 0 1 5
-9.4 7.2 0.1 138 0 1 5
-9.3 4.8 0.5 131 0 1 5
-9.3 5.7 0.3 129 0 1 5
-9.3 6.6 0.2 122 0 1 5
-9.3 7 0 125 0 1 5
-9.2 5.2 0.4 142 0 1 5
-9.2 5.5 0.2 122 0 1 5
-9.2 6.1 0.2 133 0 1 5
-9.2 6.4 0.1 132 0 1 5
-9.1 4.6 0.4 123 0 1 5
-9.1 5 0.3 128 0 1 5
-9.1 5.9 0.1 117 0 1 5
-9.1 6.6 0 137 0 1 1
-9.1 6.8 0 139 0 1 5
-9.1 7 0 129 0 1 1
-9.1 7.4 0 129 0 1 1
-9.1 7.8 0 129 0 1 1
-9.1 8.2 0 136 0 1 1
-9.1 8.6 0 133 0 1 1
-9 4.5 0.4 125 0 1 5
-9 5.4 0.1 129 0 1 5
-9 6.3 0 117 0 1 5
-8.9 4.8 0.2 130 0 1 5
-8.9 5.7 0 129 0 1 5
-8.8 4.7 0.2 142 0 1 5
-8.8 5.2 0 127 0 1 5
-8.8 8.4 0 127 0 1 5
-8.7 5 0 126 0 1 1
-8.7 5.4 0 115 0 1 1
-8.7 5.8 0 120 0 1 1
-8.7 6.2 0 133 0 1 1
-8.7 6.6 0 134 0 1 1
-8.7 7 0 123 0 1 1
-8.7 7.4 0 132 0 1 1
-8.7 7.8 0 140 0 1 1
-8.7 8.2 0 141 0 1 1
-8.7 8.7 0.1 108 0 1 5
-8.6 4.5 0.2 132 0 1 5
-8.5 4.3 0.1 125 0 1 5
-8.5 4.8 0 142 0 1 5
-8.5 9.1 0.4 99 0 1 5
-8.4 4.7 0 140 0 1 5
-8.4 8.3 0.1 97 0 1 5
-8.3 4.1 0.1 113 0 1 5
-8.3 4.7 0 131 0 1 1
-8.3 5 0 120 0 1 1
-8.3 5.4 0 120 0 1 1
-8.3 6.2 0 122 0 1 1
-8.3 6.6 0 127 0 1 1
-8.3 7 0 127 0 1 1
-8.3 7.4 0 136 0 1 1
-8.3 7.8 0 138 0 1 1
-8.3 8.7 0.3 80 0 1 5
-8.2 4.5 0 136 0 1 5
-8.2 7.9 0 112 0 1 5
-8.2 9 0.6 99 0 1 5
-8.1 4.3 0.1 140 0 1 5
-8.1 9.4 0.8 130 0 1 5
-8 8.3 0.2 82 0 1 5
-7.9 3.9 0 97 0 1 1
-7.9 4.1 0 86 0 1 5
-7.9 4.3 0 136 0 1 1
-7.9 4.7 0 120 0 1 1
-7.9 5 0 119 0 1 1
-7.9 6.2 0 100 0 1 1
-7.9 6.6 0 129 0 1 1
-7.9 7 0 143 0 1 1
-7.9 7.4 0 136 0 1 1
-7.9 7.8 0 125 0 1 1
-7.9 8.6 0.4 105 0 1 5
-7.9 9.7 1 90 0 1 5
-7.8 7.9 0 110 0 1 5
-7.8 9 0.7 104 0 1 5
-7.8 10.1 1.2 82 0 1 5
-7.7 5.2 0 59 0 1 2
-7.7 8.2 0.2 106 0 1 5
-7.7 9.3 0.9 109 0 1 5
-7.6 5.1 0.1 104 0 1 2
-7.6 5.4 0.2 124 0 1 2
-7.6 8.6 0.5 108 0 1 5
-7.6 9.7 1.1 105 0 1 5
-7.5 3.9 0 68 0 1 1
-7.5 4.3 0 118 0 1 1
-7.5 4.7 0 87 0 1 1
-7.5 5 0 127 0 1 1
-7.5 5.1 -0.1 126 0 1 2
-7.5 5.8 0 132 0 1 1
-7.5 6.2 0 128 0 1 1
-7.5 6.6 0 133 0 1 1
-7.5 7 0 137 0 1 1
-7.5 7.4 0 138 0 1 1
-7.5 10 1.3 87 0 1 5
-7.4 5.1 0.1 68 0 1 2
-7.4 5.1 0.2 101 0 1 2
-7.4 5.4 0.2 128 0 1 2
-7.4 7.9 0.1 115 0 1 5
-7.4 8.9 0.7 116 0 1 5
-7.3 5 0.1 50 0 1 2
-7.3 5.1 0.2 78 0 1 2
-7.3 5.3 0.2 123 0 1 2
-7.3 5.4 0.2 130 0 1 2
-7.3 8.2 0.3 108 0 1 5
-7.3 9.3 0.9 111 0 1 5
-7.3 10.4 1.6 80 0 1 5
-7.2 5 0.1 111 0 1 2
-7.2 5.1 0.2 127 0 1 2
-7.2 5.2 0.2 113 0 1 2
-7.2 5.3 0.2 131 0 1 2
-7.2 5.4 0.1 133 0 1 2
-7.2 5.5 0.2 112 0 1 2
-7.2 8.6 0.5 108 0 1 5
-7.2 9.6 1.2 109 0 1 5
-7.1 4.3 0 129 0 1 1
-7.1 4.7 0 120 0 1 1
-7.1 5 -0.1 104 0 1 2
-7.1 5.1 0.1 119 0 1 2
-7.1 5.2 0.1 135 0 1 2
-7.1 5.3 0 73 0 1 2
-7.1 5.3 0.1 132 0 1 2
-7.1 5.4 0 117 0 1 1
-7.1 5.5 0 118 0 1 2
-7.1 5.5 0.1 127 0 1 2
-7.1 5.8 0 102 0 1 1
-7.1 6.2 0 128 0 1 1
-7.1 6.6 0 134 0 1 1
-7.1 7 0 133 0 1 1
-7.1 7.4 0 125 0 1 1
-7.1 7.8 0.1 113 0 1 5
-7.1 8.9 0.7 117 0 1 5
-7.1 10 1.4 87 0 1 5
-7 3.5 -0.1 128 0 1 1
-7 5.1 -0.1 99 0 1 2
-7 5.2 -0.1 100 0 1 2
-7 5.3 0 107 0 1 2
-7 5.3 0.1 132 0 1 2
-7 5.4 0 116 0 1 2
-7 9.3 1 105 0 1 5
-7 10.3 1.7 118 0 1 5
-6.9 8.2 0.3 115 0 1 5
-6.9 10.7 1.9 87 0 1 5
-6.8 7.4 -0.1 123 0 1 5
-6.8 8.5 0.6 108 0 1 5
-6.8 9.6 1.2 114 0 1 5
-6.7 3.9 -0.1 120 0 1 1
-6.7 4.1 -0.1 117 0 1 1
-6.7 4.3 0 128 0 1 1
-6.7 4.7 0 129 0 1 1
-6.7 5 0 128 0 1 1
-6.7 5.4 0 128 0 1 1
-6.7 5.8 0 127 0 1 1
-6.7 6.2 0 130 0 1 1
-6.7 6.6 0 129 0 1 1
-6.7 7 0 134 0 1 1
-6.7 7.4 0 116 0 1 1
-6.7 7.8 0.2 79 0 1 5
-6.7 8.9 0.8 113 0 1 5
-6.7 9.9 1.5 106 0 1 5
-6.6 3.5 -0.2 132 0 1 1
-6.6 3.7 -0.1 110 0 1 1
-6.6 8.1 0.4 111 0 1 5
-6.6 9.2 1 115 0 1 5
-6.6 10.3 1.7 124 0 1 5
-6.5 4.3 -0.1 125 0 1 1
-6.5 7.4 0 87 0 1 5
-6.5 8.5 0.6 109 0 1 5
-6.5 9.6 1.2 103 0 1 5
-6.5 10.6 2 79 0 1 5
-6.4 9.9 1.5 113 0 1 5
-6.4 11 2.2 84 0 1 5
-6.3 4.3 -0.1 124 0 1 1
-6.3 5 -0.1 117 0 1 1
-6.3 5.8 0 104 0 1 1
-6.3 6.2 0 123 0 1 1
-6.3 6.6 0 135 0 1 1
-6.3 7 0 140 0 1 1
-6.3 7.7 0.2 118 0 1 5
-6.3 8.8 0.8 102 0 1 5
-6.2 3.5 -0.3 133 0 1 4
-6.2 8.1 0.4 112 0 1 5
-6.2 9.2 1.1 105 0 1 5
-6.2 10.3 1.8 109 0 1 5
-6.1 3.9 -0.3 134 0 1 4
-6.1 7.3 0 99 0 1 5
-6.1 8.4 0.7 113 0 1 5
-6.1 9.5 1.3 112 0 1 5
-6.1 10.6 2.1 89 0 1 5
-6 4.5 -0.1 126 0 1 1
-6 7.7 0.2 112 0 1 5
-6 8.8 0.9 106 0 1 5
-6 9.9 1.6 115 0 1 5
-6 11 2.3 115 0 1 5
-5.9 3.5 -0.5 127 0 1 4
-5.9 5.4 -0.1 127 0 1 1
-5.9 5.6 -0.1 120 0 1 1
-5.9 5.8 0 128 0 1 1
-5.9 6.2 0 130 0 1 1
-5.9 6.6 0 139 0 1 1
-5.9 7 0 134 0 1 1
-5.9 9.1 1.1 103 0 1 5
-5.9 10.2 1.8 80 0 1 5
-5.9 11.3 2.4 84 0 1 5
-5.8 4.3 -0.2 137 0 1 4
-5.8 4.7 -0.2 105 0 1 1
-5.8 4.9 -0.2 129 0 1 1
-5.8 5 -0.2 133 0 1 1
-5.8 5.2 -0.1 130 0 1 1
-5.8 8 0.4 110 0 1 5
-5.8 10.6 2.1 110 0 1 5
-5.7 5.8 -0.1 129 0 1 1
-5.7 7.3 0 75 0 1 5
-5.7 8.4 0.7 83 0 1 5
-5.7 9.5 1.4 94 0 1 5
-5.6 7.6 0.2 117 0 1 5
-5.6 8.7 0.9 125 0 1 5
-5.6 9.8 1.6 58 0 1 5
-5.6 10.9 2.4 79 0 1 5
-5.5 3.5 -0.6 130 0 1 4
-5.5 3.9 -0.5 123 0 1 4
-5.5 5.8 -0.1 105 0 1 1
-5.5 6.6 0 98 0 1 1
-5.5 7 0 134 0 1 1
-5.5 8 0.5 110 0 1 5
-5.5 9.1 1.2 117 0 1 5
-5.5 10.2 1.9 97 0 1 5
-5.4 7.3 0 116 0 1 5
-5.4 8.3 0.7 80 0 1 5
-5.4 9.4 1.4 102 0 1 5
-5.4 10.5 2.2 94 0 1 5
-5.3 5.4 -0.3 129 0 1 4
-5.3 5.8 -0.1 98 0 1 1
-5.3 9.8 1.7 96 0 1 5
-5.3 10.9 2.4 120 0 1 5
-5.2 7.6 0.2 135 0 1 5
-5.2 8.7 1 60 0 1 5
-5.2 11.2 2.5 97 0 1 5
-5.1 2.7 -0.8 124 0 1 4
-5.1 3.1 -0.8 128 0 1 4
-5.1 3.5 -0.8 120 0 1 4
-5.1 4.3 -0.5 89 0 1 4
-5.1 4.7 -0.5 128 0 1 4
-5.1 5 -0.5 104 0 1 4
-5.1 6.2 -0.1 132 0 1 1
-5.1 6.6 0 87 0 1 1
-5.1 7 0 86 0 1 1
-5.1 8 0.5 100 0 1 5
-5.1 9 1.2 89 0 1 5
-5.1 10.1 2 109 0 1 5
-5 5.8 -0.2 116 0 1 1
-5 7.2 0.1 110 0 1 5
-5 8.3 0.7 99 0 1 5
-5 9.4 1.5 99 0 1 5
-5 10.5 2.3 114 0 1 5
-4.9 3.5 -0.8 121 0 1 4
-4.9 3.9 -0.6 123 0 1 4
-4.9 7.6 0.2 120 0 1 5
-4.9 8.7 1 115 0 1 5
-4.9 9.7 1.8 110 0 1 5
-4.9 10.8 2.5 103 0 1 5
-4.8 5.8 -0.2 126 0 1 1
-4.8 6.6 0 84 0 1 1
-4.8 7 0 103 0 1 1
-4.8 9 1.2 93 0 1 5
-4.8 10.1 2.1 116 0 1 5
-4.8 11.2 2.5 91 0 1 5
-4.7 2.3 -0.5 108 0 1 4
-4.7 3.5 -0.8 114 0 1 4
-4.7 5.4 -0.5 132 0 1 4
-4.7 7.9 0.4 136 0 1 5
-4.7 10.4 2.3 123 0 1 5
-4.6 5.8 -0.2 89 0 1 1
-4.6 7.2 0 121 0 1 5
-4.6 8.3 0.7 116 0 1 5
-4.6 9.4 1.5 115 0 1 5
-4.5 3.3 -0.8 121 0 1 4
-4.5 7.5 0.2 121 0 1 5
-4.5 8.6 0.9 119 0 1 5
-4.5 9.7 1.8 117 0 1 5
-4.5 10.8 2.4 91 0 1 5
-4.4 2.9 -0.8 124 0 1 4
-4.4 3.1 -0.8 126 0 1 4
-4.4 3.5 -0.8 124 0 1 4
-4.4 3.9 -0.8 121 0 1 4
-4.4 4.3 -0.8 131 0 1 4
-4.4 4.7 -0.8 123 0 1 4
-4.4 5 -0.8 85 0 1 4
-4.4 5.8 -0.2 108 0 1 1
-4.4 6.6 0 61 0 1 1
-4.4 7 0 65 0 1 1
-4.4 7.9 0.4 68 0 1 5
-4.4 9 1.2 132 0 1 5
-4.4 10 2.1 115 0 1 5
-4.4 11.1 2.5 84 0 1 5
-4.3 5.4 -0.5 111 0 1 4
-4.3 6.2 -0.1 127 0 1 1
-4.3 8.2 0.6 117 0 1 5
-4.3 9.3 1.4 116 0 1 5
-4.3 10.4 2.2 122 0 1 5
-4.2 5.8 -0.2 78 0 1 1
-4.2 7.1 0 114 0 1 5
-4.2 9.7 1.7 114 0 1 5
-4.2 10.7 2.4 142 0 1 5
-4.1 7.5 0.2 112 0 1 5
-4.1 8.6 0.8 132 0 1 5
-4.1 11.1 2.4 135 0 1 5
-4 3.1 -0.8 128 0 1 4
-4 3.5 -0.8 122 0 1 4
-4 3.9 -0.8 127 0 1 4
-4 4.3 -0.8 130 0 1 4
-4 4.7 -0.8 123 0 1 4
-4 5 -0.8 122 0 1 4
-4 5.8 -0.2 109 0 1 1
-4 6.6 0 80 0 1 1
-4 7 0 103 0 1 1
-4 7.8 0.4 107 0 1 5
-4 8.9 1.1 128 0 1 5
-4 10 1.9 126 0 1 5
-3.9 5.4 -0.5 75 0 1 4
-3.9 7.1 0 118 0 1 5
-3.9 8.2 0.6 123 0 1 5
-3.9 9.3 1.3 88 0 1 5
-3.9 10.4 2.1 131 0 1 5
-3.9 11.4 2.3 144 0 1 5
-3.8 5.8 -0.2 85 0 1 1
-3.8 7.4 0.1 114 0 1 5
-3.8 8.5 0.7 108 0 1 5
-3.8 9.6 1.5 122 0 1 5
-3.8 10.7 2.2 132 0 1 5
-3.8 14 2.1 136 0 1 5
-3.7 5.8 -0.2 116 0 1 1
-3.7 8.9 0.9 121 0 1 5
-3.7 10 1.8 130 0 1 5
-3.7 11.1 2.3 116 0 1 5
-3.7 14.3 2.3 83 0 1 5
-3.6 3.5 -0.8 119 0 1 4
-3.6 3.9 -0.8 126 0 1 4
-3.6 4.3 -0.8 114 0 1 4
-3.6 4.7 -0.8 130 0 1 4
-3.6 5 -0.8 112 0 1 4
-3.6 6.6 0 107 0 1 1
-3.6 7 0 136 0 1 1
-3.6 7.8 0.3 93 0 1 5
-3.6 10.3 1.9 129 0 1 5
-3.6 13.6 2.1 106 0 1 5
-3.5 5.4 -0.5 99 0 1 4
-3.5 5.8 -0.2 93 0 1 1
-3.5 6.2 -0.1 131 0 1 1
-3.5 8.1 0.5 102 0 1 5
-3.5 9.2 1.2 135 0 1 5
-3.5 13.9 2.3 82 0 1 5
-3.4 7.4 0.1 126 0 1 5
-3.4 8.5 0.7 115 0 1 5
-3.4 9.6 1.4 97 0 1 5
-3.4 10.7 2.1 138 0 1 5
-3.4 14.3 2.4 99 0 1 5
-3.3 5.8 -0.1 104 0 1 1
-3.3 7.7 0.2 122 0 1 5
-3.3 8.8 0.8 124 0 1 5
-3.3 9.9 1.6 131 0 1 5
-3.3 11 2.1 137 0 1 5
-3.3 13.2 2.1 114 0 1 5
-3.2 6.6 0 126 0 1 1
-3.2 7 0 88 0 1 1
-3.2 8.1 0.4 127 0 1 5
-3.2 9.2 1 131 0 1 5
-3.2 10.3 1.8 123 0 1 5
-3.2 11.4 2.1 91 0 1 5
-3.2 13.5 2.3 109 0 1 5
-3.1 5.4 -0.5 75 0 1 4
-3.1 5.8 -0.1 115 0 1 1
-3.1 9.5 1.2 135 0 1 5
-3.1 10.6 1.9 139 0 1 5
-3.1 13.9 2.4 119 0 1 5
-3 5.8 -0.1 92 0 1 1
-3 7.4 -0.1 82 0 1 5
-3 8.4 0.5 123 0 1 5
-3 11 2 137 0 1 5
-3 13.2 2.2 124 0 1 5
-3 14.2 2.5 114 0 1 5
-2.9 5.4 -0.3 56 0 1 4
-2.9 7.7 0.1 113 0 1 5
-2.9 8.8 0.7 128 0 1 5
-2.9 9.9 1.4 137 0 1 5
-2.9 13.5 2.3 113 0 1 5
-2.8 5.6 -0.1 100 0 1 1
-2.8 5.8 0 104 0 1 1
-2.8 6.2 0 99 0 1 1
-2.8 6.6 0 112 0 1 1
-2.8 7 0 75 0 1 1
-2.8 7.4 0 126 0 1 1
-2.8 8.1 0.3 118 0 1 5
-2.8 9.1 0.9 134 0 1 5
-2.8 10.2 1.6 129 0 1 5
-2.7 2.3 -0.1 125 0 1 1
-2.7 2.5 -0.1 129 0 1 1
-2.7 2.7 -0.2 126 0 1 1
-2.7 2.9 -0.2 116 0 1 1
-2.7 3.1 -0.2 126 0 1 1
-2.7 3.3 -0.2 125 0 1 1
-2.7 3.5 -0.2 133 0 1 1
-2.7 3.7 -0.2 115 0 1 1
-2.7 3.9 -0.2 115 0 1 1
-2.7 4.1 -0.2 120 0 1 1
-2.7 4.3 -0.2 127 0 1 1
-2.7 4.5 -0.2 117 0 1 1
-2.7 4.7 -0.2 92 0 1 1
-2.7 4.9 -0.2 102 0 1 1
-2.7 5 -0.2 116 0 1 1
-2.7 5.2 -0.1 108 0 1 1
-2.7 5.4 -0.1 110 0 1 1
-2.7 8.4 0.4 132 0 1 5
-2.7 9.5 1.1 125 0 1 5
-2.7 10.6 1.8 136 0 1 5
-2.7 13.9 2.5 113 0 1 5
-2.6 8.8 0.6 119 0 1 5
-2.6 9.8 1.3 130 0 1 5
-2.6 10.9 1.9 131 0 1 5
-2.6 13.1 2.2 121 0 1 5
-2.5 7.7 0 131 0 1 5
-2.5 10.2 1.5 138 0 1 5
-2.5 11.3 2.1 117 0 1 5
-2.5 13.5 2.4 124 0 1 5
-2.4 5.8 0 130 0 1 1
-2.4 6.2 0 126 0 1 1
-2.4 6.6 0 114 0 1 1
-2.4 7 0 101 0 1 1
-2.4 7.4 0 123 0 1 1
-2.4 8 0.1 131 0 1 5
-2.4 9.1 0.7 138 0 1 5
-2.4 12.7 2.1 128 0 1 5
-2.4 13.8 2.4 127 0 1 5
-2.3 2.7 -0.1 135 0 1 1
-2.3 3.5 -0.1 120 0 1 1
-2.3 4.3 -0.1 132 0 1 1
-2.3 5 -0.1 125 0 1 1
-2.3 8.4 0.3 132 0 1 5
-2.3 9.4 0.9 138 0 1 5
-2.3 10.5 1.7 137 0 1 5
-2.3 14.2 2.4 87 0 1 5
-2.2 8.7 0.4 137 0 1 5
-2.2 9.8 1.1 135 0 1 5
-2.2 10.9 1.9 127 0 1 5
-2.2 13.1 2.3 122 0 1 5
-2.1 8 -0.1 112 0 1 5
-2.1 9.1 0.6 137 0 1 5
-2.1 10.1 1.3 132 0 1 5
-2.1 11.2 2 137 0 1 5
-2.1 13.4 2.3 132 0 1 5
-2 2.7 0 134 0 1 1
-2 3.1 0 133 0 1 1
-2 3.5 0 130 0 1 1
-2 3.8 0 105 0 1 2
-2 3.8 0.1 102 0 1 2
-2 4.1 0.2 121 0 1 2
-2 4.2 0 93 0 1 2
-2 5 0 122 0 1 1
-2 5.4 0 118 0 1 1
-2 5.8 0 125 0 1 1
-2 6.2 0 125 0 1 1
-2 6.6 0 120 0 1 1
-2 6.8 -0.1 134 0 1 2
-2 7 0 127 0 1 1
-2 9.4 0.7 146 0 1 5
-2 10.5 1.5 89 0 1 5
-2 11.6 2.1 108 0 1 5
-2 12.7 2.2 118 0 1 5
-2 13.8 2.4 112 0 1 5
-1.9 3.7 0 61 0 1 2
-1.9 3.7 0.1 91 0 1 2
-1.9 6.9 0 61 0 1 2
-1.9 6.9 0.1 65 0 1 2
-1.9 6.9 0.2 108 0 1 2
-1.9 8.3 0.1 136 0 1 5
-1.9 10.8 1.7 111 0 1 5
-1.9 11.9 2.1 136 0 1 5
-1.9 13 2.3 120 0 1 5
-1.8 4.1 0.2 117 0 1 2
-1.8 4.2 0.2 108 0 1 2
-1.8 6.8 0 83 0 1 2
-1.8 6.9 0.2 122 0 1 2
-1.8 7.2 0.2 117 0 1 2
-1.8 8.7 0.2 142 0 1 5
-1.8 9.8 0.9 133 0 1 5
-1.8 13.4 2.3 134 0 1 5
-1.7 6.7 -0.1 123 0 1 2
-1.7 6.8 0.1 79 0 1 2
-1.7 9 0.4 143 0 1 5
-1.7 10.1 1.1 134 0 1 5
-1.7 11.2 1.9 134 0 1 5
-1.7 12.3 2.2 129 0 1 5
-1.6 2.7 0 138 0 1 1
-1.6 3.1 0 119 0 1 1
-1.6 3.5 0 126 0 1 1
-1.6 3.7 0.1 71 0 1 2
-1.6 3.8 0.2 119 0 1 2
-1.6 4.1 0.2 72 0 1 2
-1.6 4.3 0.2 127 0 1 2
-1.6 5 0 124 0 1 1
-1.6 5.4 0 126 0 1 1
-1.6 5.8 0 126 0 1 1
-1.6 6.2 0 127 0 1 1
-1.6 6.6 0 116 0 1 1
-1.6 6.7 0 109 0 1 2
-1.6 6.8 0 110 0 1 2
-1.6 6.8 0.1 116 0 1 2
-1.6 6.9 0.2 115 0 1 2
-1.6 7 0.2 71 0 1 2
-1.6 8.2 0 119 0 1 1
-1.6 9.4 0.5 136 0 1 5
-1.6 10.5 1.3 117 0 1 5
-1.6 11.5 2 135 0 1 5
-1.6 12.6 2.2 130 0 1 5
-1.6 13.7 2.3 131 0 1 5
-1.5 4.1 0.2 136 0 1 2
-1.5 4.3 0.1 125 0 1 2
-1.5 4.3 0.2 138 0 1 2
-1.5 7.2 0.2 136 0 1 2
-1.5 8.6 0.1 132 0 1 5
-1.5 9.7 0.7 140 0 1 5
-1.5 10.8 1.6 138 0 1 5
-1.5 11.9 2.1 127 0 1 5
-1.5 13 2.2 137 0 1 5
-1.5 14.1 2.3 104 0 1 5
-1.4 3.9 0.2 142 0 1 2
-1.4 4 0.2 137 0 1 2
-1.4 4.1 0.1 134 0 1 2
-1.4 4.2 0.1 136 0 1 2
-1.4 4.3 0 130 0 1 2
-1.4 6.7 0 79 0 1 2
-1.4 6.8 0 129 0 1 2
-1.4 6.8 0.1 135 0 1 2
-1.4 6.9 0.2 126 0 1 2
-1.4 7 0.2 140 0 1 2
-1.4 7.2 0.2 143 0 1 2
-1.4 7.4 0.2 114 0 1 2
-1.4 10.1 0.9 125 0 1 5
-1.4 11.2 1.7 125 0 1 5
-1.4 12.2 2.1 131 0 1 5
-1.4 13.3 2.2 134 0 1 5
-1.3 3.8 0 138 0 1 2
-1.3 3.8 0.1 142 0 1 2
-1.3 4 0 130 0 1 2
-1.3 4 0.1 134 0 1 2
-1.3 4.2 0 115 0 1 2
-1.3 4.3 0 98 0 1 2
-1.3 7.1 0 111 0 1 2
-1.3 7.2 -0.1 111 0 1 2
-1.3 7.2 0.1 125 0 1 2
-1.3 7.3 0 102 0 1 2
-1.3 7.4 0 125 0 1 2
-1.3 9 0.2 143 0 1 5
-1.3 12.6 2.2 123 0 1 5
-1.3 13.7 2.2 116 0 1 5
-1.2 2.7 0 117 0 1 1
-1.2 3.1 0 133 0 1 1
-1.2 3.5 0 138 0 1 1
-1.2 3.9 0 114 0 1 1
-1.2 4.1 -0.1 141 0 1 2
-1.2 4.3 0 130 0 1 1
-1.2 4.7 0 119 0 1 1
-1.2 5 0 133 0 1 1
-1.2 5.4 0 127 0 1 1
-1.2 5.8 0 83 0 1 1
-1.2 6.2 0 128 0 1 1
-1.2 6.6 0 130 0 1 1
-1.2 7 0 121 0 1 1
-1.2 7.4 0 124 0 1 1
-1.2 7.8 0 120 0 1 1
-1.2 8.2 0 139 0 1 1
-1.2 8.6 0 131 0 1 1
-1.2 9.3 0.3 139 0 1 5
-1.2 10.4 1.1 142 0 1 5
-1.2 11.5 1.9 149 0 1 5
-1.2 14 2.2 139 0 1 5
-1.1 9.7 0.5 142 0 1 5
-1.1 10.8 1.4 145 0 1 5
-1.1 11.9 2 131 0 1 5
-1.1 12.9 2.1 138 0 1 5
-1 8.9 0 143 0 1 5
-1 10 0.7 110 0 1 5
-1 11.1 1.6 148 0 1 5
-1 12.2 2 146 0 1 5
-1 13.3 2.2 136 0 1 5
-0.9 9.3 0.1 145 0 1 5
-0.9 10.4 0.9 147 0 1 5
-0.9 11.5 1.7 144 0 1 5
-0.9 12.6 2 148 0 1 5
-0.9 13.6 2.1 133 0 1 5
-0.8 3.1 0 135 0 1 1
-0.8 3.5 0 111 0 1 1
-0.8 4.3 0 96 0 1 1
-0.8 5 -0.1 123 0 1 1
-0.8 5.8 -0.1 90 0 1 1
-0.8 6.6 -0.1 132 0 1 1
-0.8 7.4 -0.1 139 0 1 1
-0.8 8.2 -0.1 120 0 1 1
-0.8 10.7 1.1 155 0 1 5
-0.8 11.8 1.8 150 0 1 5
-0.8 12.9 2 142 0 1 5
-0.8 14 2.1 125 0 1 5
-0.7 9.1 0 134 0 1 5
-0.7 9.6 0.3 132 0 1 5
-0.7 13.3 2 142 0 1 5
-0.7 14.3 2 142 0 1 5
-0.6 10 0.5 145 0 1 5
-0.6 11.1 1.3 148 0 1 5
-0.6 12.2 1.8 150 0 1 5
-0.5 5.4 -0.1 116 0 1 1
-0.5 5.6 -0.1 139 0 1 1
-0.5 5.8 -0.1 121 0 1 1
-0.5 6 -0.1 119 0 1 1
-0.5 6.2 -0.1 97 0 1 1
-0.5 6.4 -0.1 104 0 1 1
-0.5 6.6 -0.1 136 0 1 1
-0.5 6.8 -0.1 126 0 1 1
-0.5 7 -0.1 114 0 1 1
-0.5 7.2 -0.1 135 0 1 1
-0.5 7.4 -0.1 120 0 1 1
-0.5 7.5 -0.1 98 0 1 1
-0.5 7.7 -0.1 129 0 1 1
-0.5 7.9 -0.1 145 0 1 1
-0.5 8.1 -0.1 143 0 1 1
-0.5 8.3 -0.1 150 0 1 1
-0.5 8.5 -0.1 141 0 1 1
-0.5 9.2 0 141 0 1 5
-0.5 10.3 0.7 151 0 1 5
-0.5 11.4 1.4 147 0 1 5
-0.5 12.5 1.8 147 0 1 5
-0.5 13.6 2 105 0 1 5
-0.4 3.1 0 138 0 1 1
-0.4 3.5 0 122 0 1 1
-0.4 3.7 0 105 0 1 1
-0.4 3.9 0 112 0 1 1
-0.4 4.1 0 129 0 1 1
-0.4 4.3 0 124 0 1 1
-0.4 4.5 -0.1 145 0 1 1
-0.4 4.6 -0.1 130 0 1 1
-0.4 4.8 -0.1 128 0 1 1
-0.4 5 -0.1 107 0 1 1
-0.4 5.2 -0.1 137 0 1 1
-0.4 8.7 -0.1 151 0 1 1
-0.4 8.9 -0.1 135 0 1 1
-0.4 9.4 -0.1 142 0 1 1
-0.4 9.6 0.1 97 0 1 5
-0.4 10.7 0.8 155 0 1 5
-0.4 11.8 1.5 150 0 1 5
-0.4 12.9 1.8 139 0 1 5
-0.4 14 1.9 146 0 1 5
-0.3 8.9 -0.2 144 0 1 4
-0.3 9.9 0.2 127 0 1 5
-0.3 11 1 139 0 1 5
-0.3 12.1 1.6 140 0 1 5
-0.3 13.2 1.8 147 0 1 5
-0.3 14.3 1.8 93 0 1 5
-0.2 3.5 0 134 0 1 1
-0.2 12.5 1.5 149 0 1 5
-0.2 13.6 1.7 150 0 1 5
0 3.5 0 135 0 1 1
-0.1 3.8 -0.1 140 0 1 4
-0.1 4.2 -0.1 138 0 1 4
-0.1 4.6 -0.2 146 0 1 4
-0.1 4.9 -0.3 149 0 1 4
-0.1 5.2 -0.4 141 0 1 4
-0.1 5.6 -0.4 140 0 1 4
-0.1 6 -0.4 144 0 1 4
-0.1 6.4 -0.4 137 0 1 4
-0.1 6.8 -0.4 143 0 1 4
-0.1 7.2 -0.4 139 0 1 4
-0.1 7.6 -0.4 148 0 1 4
-0.1 8 -0.4 141 0 1 4
-0.1 8.4 -0.4 144 0 1 4
-0.1 8.8 -0.3 143 0 1 4
0 9.5 -0.1 134 0 1 5
-0.1 9.7 -0.1 139 0 1 1
-0.1 9.7 0.1 127 0 1 5
-0.1 10.1 -0.1 146 0 1 1
-0.1 10.3 0.4 149 0 1 5
0 10.6 0.6 146 0 1 5
-0.1 11.4 1.1 136 0 1 5
0 11.7 1.2 144 0 1 5
0 12.8 1.6 140 0 1 5
-0.1 13.9 1.7 94 0 1 5
0.1 3.5 0 132 0 1 1
0.1 8.7 -0.4 135 0 1 4
0.1 9.9 0.1 116 0 1 5
0.1 11 0.7 152 0 1 5
0.1 12.1 1.2 137 0 1 5
0.1 13.2 1.5 144 0 1 5
0.1 14.3 1.6 157 0 1 5
0.2 5.4 -0.7 146 0 1 4
0.2 5.8 -0.7 141 0 1 4
0.2 6.2 -0.7 89 0 1 4
0.2 6.6 -0.7 136 0 1 4
0.2 7 -0.7 140 0 1 4
0.2 7.4 -0.7 134 0 1 4
0.2 7.8 -0.7 121 0 1 4
0.2 10.2 0.2 142 0 1 5
0.2 11.3 0.8 144 0 1 5
0.2 12.4 1.2 145 0 1 5
0.2 13.5 1.5 149 0 1 5
0.2 14.6 1.5 156 0 1 5
0.3 3.5 0 127 0 1 1
0.3 3.8 -0.1 126 0 1 4
0.3 4.2 -0.2 146 0 1 4
0.3 8.2 -0.6 131 0 1 4
0.3 8.7 -0.6 141 0 1 4
0.3 9.2 -0.4 144 0 1 4
0.3 9.7 -0.2 138 0 1 4
0.3 10.1 -0.1 138 0 1 1
0.3 10.5 0 145 0 1 1
0.3 10.6 0.3 150 0 1 5
0.3 10.9 0 102 0 1 1
0.3 11.3 0 134 0 1 1
0.3 11.7 0.8 135 0 1 5
0.3 12.8 1.2 140 0 1 5
0.3 13.9 1.4 160 0 1 5
0.4 8.6 -0.7 116 0 1 4
0.4 10.1 0 96 0 1 5
0.4 13.1 1.2 132 0 1 5
0.4 14.2 1.3 154 0 1 5
0.5 3.5 -0.1 128 0 1 1
0.5 10.9 0.4 147 0 1 5
0.5 12 0.8 140 0 1 5
0.5 14.6 1.2 152 0 1 5
0.6 6 -1.1 142 0 1 4
0.6 6.4 -1.1 134 0 1 4
0.6 6.8 -1.1 139 0 1 4
0.6 7.2 -1.1 141 0 1 4
0.6 7.6 -1.1 104 0 1 4
0.6 8 -1 141 0 1 4
0.6 8.5 -0.9 126 0 1 4
0.6 11.3 0.4 147 0 1 5
0.6 12.4 0.8 125 0 1 5
0.6 13.5 1.1 146 0 1 5
0.7 3.5 -0.1 140 0 1 1
0.7 3.8 -0.2 133 0 1 4
0.7 9.6 -0.4 129 0 1 4
0.7 10.5 -0.1 140 0 1 1
0.7 10.6 0.1 144 0 1 5
0.7 10.9 -0.1 126 0 1 1
0.7 11.6 0.5 139 0 1 5
0.7 12.7 0.8 132 0 1 5
0.7 13.8 1.1 153 0 1 5
0.8 8.7 -0.9 142 0 1 4
0.8 10.9 0.1 141 0 1 5
0.8 12 0.5 138 0 1 5
0.8 13.1 0.8 136 0 1 5
0.8 14.2 1 137 0 1 5
0.9 3.5 -0.1 132 0 1 1
0.9 6.2 -1.5 127 0 1 4
0.9 6.6 -1.5 145 0 1 4
0.9 7 -1.5 140 0 1 4
0.9 7.4 -1.5 136 0 1 4
0.9 7.8 -1.3 137 0 1 4
0.9 12.3 0.5 145 0 1 5
0.9 13.4 0.8 151 0 1 5
0.9 14.5 0.9 133 0 1 5
1 8.3 -1.2 137 0 1 4
1 8.9 -0.9 131 0 1 4
1 9.2 -0.7 138 0 1 4
1 11.3 0.2 138 0 1 5
1 13.8 0.7 148 0 1 5
1.1 9.5 -0.6 134 0 1 4
1.1 9.7 -0.4 132 0 1 4
1.1 10 -0.3 131 0 1 4
1.1 10.3 -0.2 133 0 1 4
1.1 10.5 -0.1 138 0 1 1
1.1 11.3 0 149 0 1 1
1.1 11.6 0.2 153 0 1 5
1.1 11.7 0 132 0 1 1
1.1 12.1 0 138 0 1 1
1.1 12.7 0.5 145 0 1 5
1.2 10.9 -0.1 136 0 1 5
1.2 12 0.2 131 0 1 5
1.2 13 0.4 137 0 1 5
1.2 14.1 0.7 152 0 1 5
1.2 15.2 0.7 152 0 1 5
1.3 6.5 -1.7 143 0 1 4
1.3 6.9 -1.7 87 0 1 4
1.3 7.2 -1.7 136 0 1 4
1.3 7.7 -1.5 134 0 1 4
1.3 8.2 -1.3 145 0 1 4
1.3 10.5 -0.1 127 0 1 1
1.3 12.3 0.2 146 0 1 5
1.3 13.4 0.4 138 0 1 5
1.3 14.5 0.6 143 0 1 5
1.4 8.8 -1 141 0 1 4
1.4 9.4 -0.6 144 0 1 4
1.4 11.6 -0.1 139 0 1 5
1.4 12.7 0.1 147 0 1 5
1.4 13.7 0.4 142 0 1 5
1.4 14.8 0.5 152 0 1 5
1.5 10 -0.4 125 0 1 4
1.5 10.5 -0.1 106 0 1 1
1.5 11.3 0 139 0 1 1
1.5 11.7 0 126 0 1 1
1.5 12.1 0 134 0 1 1
1.5 13 0.1 130 0 1 5
1.5 14.1 0.4 150 0 1 5
1.5 15.2 0.4 147 0 1 5
1.6 14.4 0.3 145 0 1 5
1.7 6.7 -1.9 147 0 1 4
1.7 7.1 -1.9 149 0 1 4
1.7 7.6 -1.7 135 0 1 4
1.7 8.1 -1.5 133 0 1 4
1.7 10.5 -0.1 128 0 1 1
1.7 13.4 0.1 147 0 1 5
1.8 8.7 -1.1 128 0 1 4
1.8 9.4 -0.7 150 0 1 4
1.8 13.7 0.1 144 0 1 5
1.8 14.8 0.4 145 0 1 5
1.9 9.9 -0.4 134 0 1 4
1.9 10.5 -0.1 138 0 1 1
1.9 10.9 -0.1 139 0 1 1
1.9 11.3 0 139 0 1 1
1.9 11.7 0 135 0 1 1
1.9 12.1 0 134 0 1 1
1.9 12.5 0 143 0 1 1
1.9 12.9 0 134 0 1 1
1.9 13.3 0 125 0 1 1
1.9 13.7 0 130 0 1 1
1.9 14.1 0.1 137 0 1 5
1.9 15.1 0.4 143 0 1 5
2 6.7 -1.9 137 0 1 4
2 7.1 -1.9 110 0 1 4
2 14.4 0.2 144 0 1 5
2.1 7.6 -1.7 117 0 1 4
2.1 8.1 -1.5 127 0 1 4
2.1 10.5 -0.1 119 0 1 1
2.1 12.5 0 44 0 1 3
2.1 14.8 0.2 140 0 1 5
2.2 8.7 -1.1 153 0 1 4
2.2 9.4 -0.7 128 0 1 4
2.2 9.9 -0.4 122 0 1 4
2.2 12.8 0 98 0 1 3
2.3 10.5 -0.1 129 0 1 1
2.3 11.3 0 138 0 1 1
2.3 11.7 0 125 0 1 1
2.3 12.1 0 79 0 1 1
2.3 12.2 0.3 89 0 1 3
2.3 13.1 0.1 108 0 1 3
2.3 13.3 0 48 0 1 1
2.3 13.7 0 134 0 1 1
2.3 14.1 0 139 0 1 1
2.3 14.5 0 121 0 1 1
2.3 14.9 0 131 0 1 1
2.3 15.1 0.2 138 0 1 5
2.3 15.2 0 125 0 1 1
2.3 19.5 0 143 0 1 1
2.3 19.7 0 89 0 1 1
2.4 6.7 -1.9 131 0 1 4
2.4 7.1 -1.9 138 0 1 4
2.4 11.9 0.1 44 0 1 3
2.4 12.9 0.2 127 0 1 3
2.4 13.3 0.1 82 0 1 3
2.4 14.4 0.1 129 0 1 5
2.5 7.6 -1.7 129 0 1 4
2.5 8.1 -1.5 132 0 1 4
2.5 8.7 -1.1 136 0 1 4
2.5 10.5 -0.1 128 0 1 1
2.5 12.9 0.3 79 0 1 3
2.6 9.4 -0.7 129 0 1 4
2.6 9.9 -0.4 126 0 1 4
2.6 11.4 0.2 79 0 1 3
2.6 12.1 0.2 74 0 1 3
2.6 12.3 0.3 85 0 1 3
2.6 12.6 0.5 48 0 1 3
2.6 12.7 0.3 51 0 1 3
2.6 12.8 0.7 49 0 1 3
2.6 13 0.5 36 0 1 3
2.6 15.1 0.1 128 0 1 5
2.7 10.5 -0.1 127 0 1 1
2.7 10.9 -0.1 133 0 1 1
2.7 11.3 0 69 0 1 1
2.7 11.3 0.1 39 0 1 3
2.7 12.3 0.4 38 0 1 3
2.7 12.4 0.5 45 0 1 3
2.7 12.5 0.7 47 0 1 3
2.7 13.3 0.7 67 0 1 3
2.7 13.4 0.5 101 0 1 3
2.7 14.9 0 134 0 1 1
2.7 15.2 0 130 0 1 1
2.7 15.6 0 130 0 1 1
2.7 16 0 49 0 1 1
2.7 16.4 0 101 0 1 1
2.7 16.8 0 129 0 1 1
2.7 17.2 0 132 0 1 1
2.7 17.6 0 135 0 1 1
2.7 18 0 131 0 1 1
2.7 18.4 0 140 0 1 1
2.7 18.8 0 140 0 1 1
2.7 19.2 0 136 0 1 1
2.7 19.4 0 133 0 1 1
2.7 19.7 0 91 0 1 1
2.8 7.1 -1.9 140 0 1 4
2.8 11.6 0.2 71 0 1 3
2.8 11.9 0.3 64 0 1 3
2.8 12.1 0.4 43 0 1 3
2.9 7.6 -1.7 118 0 1 4
2.9 8.1 -1.5 140 0 1 4
2.9 8.7 -1.1 136 0 1 4
2.9 10.5 -0.1 116 0 1 1
2.9 11.4 0.3 91 0 1 3
2.9 12 0.6 43 0 1 3
3 9.4 -0.7 133 0 1 4
3 9.9 -0.4 133 0 1 4
3 11.3 0.3 46 0 1 3
3 11.4 0.6 49 0 1 3
3 11.5 0.5 48 0 1 3
3 11.5 0.7 47 0 1 3
3 11.6 0.6 51 0 1 3
3 11.6 0.8 46 0 1 3
3 11.7 0.4 49 0 1 3
3 11.8 0.7 46 0 1 3
3 12.6 1 104 0 1 3
3 12.9 1.1 71 0 1 3
3 13.4 1.1 86 0 1 3
3.1 10.5 -0.1 132 0 1 1
3.1 16 0 129 0 1 1
3.1 16.4 0 127 0 1 1
3.1 16.8 0 128 0 1 1
3.1 17.2 0 121 0 1 1
3.1 17.6 0 109 0 1 1
3.1 18 0 133 0 1 1
3.1 18.4 0 138 0 1 1
3.1 18.8 0 139 0 1 1
3.1 19.2 0 126 0 1 1
3.1 19.4 0 126 0 1 1
3.1 19.7 0 91 0 1 1
3.2 7.1 -1.9 141 0 1 4
3.2 7.6 -1.7 97 0 1 4
3.2 11.3 0.6 48 0 1 3
3.2 11.3 0.8 85 0 1 3
3.2 11.5 0.9 102 0 1 3
3.2 11.7 0.9 81 0 1 3
3.2 11.9 0.9 73 0 1 3
3.2 12.7 1.1 111 0 1 3
3.3 8.1 -1.5 104 0 1 4
3.3 8.7 -1.1 141 0 1 4
3.3 10.5 -0.1 121 0 1 1
3.3 12.9 1.2 89 0 1 3
3.3 13.2 1.2 123 0 1 3
3.4 9.4 -0.7 130 0 1 4
3.4 9.9 -0.4 136 0 1 4
3.4 11.9 1.1 109 0 1 3
3.4 12.2 1.1 100 0 1 3
3.4 12.5 1.2 89 0 1 3
3.5 10.5 -0.1 76 0 1 4
3.5 10.6 -0.1 76 0 1 1
3.5 10.9 -0.1 146 0 1 1
3.5 11.6 1.1 103 0 1 3
3.5 13.4 1.1 122 0 1 3
3.5 18 0 125 0 1 1
3.5 18.4 0 125 0 1 1
3.5 18.8 0 127 0 1 1
3.5 19.2 0 123 0 1 1
3.5 19.4 0 122 0 1 1
3.5 19.6 0 93 0 1 1
3.6 7.1 -1.9 140 0 1 4
3.6 7.6 -1.7 144 0 1 4
3.6 10.5 -0.1 118 0 1 1
3.7 8.1 -1.5 140 0 1 4
3.7 8.7 -1.1 149 0 1 4
3.7 11.2 0.3 54 0 1 3
3.7 11.4 1 99 0 1 3
3.7 11.4 1.1 100 0 1 3
3.7 11.5 1.2 129 0 1 3
3.7 11.6 1.2 122 0 1 3
3.7 12.2 1.2 109 0 1 3
3.7 19.6 -0.1 122 0 1 1
3.8 9.4 -0.7 140 0 1 4
3.8 9.9 -0.4 126 0 1 4
3.8 10.5 -0.1 138 0 1 1
3.8 11.7 1.3 114 0 1 3
3.9 10.5 -0.1 136 0 1 4
3.9 19.2 0 46 0 1 1
3.9 19.6 -0.1 101 0 1 1
4 7.6 -1.7 144 0 1 4
4 10.5 -0.1 137 0 1 1
4.1 8.1 -1.5 150 0 1 4
4.1 8.7 -1.1 126 0 1 4
4.1 11.2 0.5 72 0 1 3
4.1 11.3 0.9 90 0 1 3
4.1 11.5 1.1 103 0 1 3
4.1 11.5 1.2 145 0 1 3
4.1 11.6 1.2 106 0 1 3
4.2 9.4 -0.7 110 0 1 4
4.2 9.9 -0.4 135 0 1 4
4.2 10.5 -0.1 136 0 1 1
4.3 10.5 -0.1 144 0 1 4
4.3 10.9 -0.1 115 0 1 1
4.4 10.5 -0.1 143 0 1 1
4.5 8.7 -1.1 149 0 1 4
4.5 11.3 0.7 100 0 1 3
4.5 11.4 0.9 109 0 1 3
4.5 11.5 1.2 106 0 1 3
4.6 9.4 -0.7 144 0 1 4
4.6 9.9 -0.4 143 0 1 4
4.6 10.5 -0.1 139 0 1 4
4.7 11.2 0.5 103 0 1 3
4.8 10.5 -0.1 139 0 1 1
4.8 11.3 0.6 106 0 1 3
4.8 11.4 0.7 108 0 1 3
4.8 11.5 1 134 0 1 3
4.8 11.8 1.1 89 0 1 3
4.9 11.6 1 150 0 1 3
5 9.9 -0.4 144 0 1 4
5 10.5 -0.1 137 0 1 4
5 10.9 -0.1 125 0 1 1
5 11.1 0.3 111 0 1 3
5 11.2 0.4 124 0 1 3
5 11.3 0.5 100 0 1 3
5.1 11.1 0.1 92 0 1 3
5.1 11.4 0.6 88 0 1 3
5.1 12 1 149 0 1 3
5.2 10.5 -0.1 133 0 1 1
5.2 11.4 0.7 106 0 1 3
5.2 11.5 0.8 134 0 1 3
5.2 11.7 0.9 150 0 1 3
5.2 11.8 1 153 0 1 3
5.3 11.3 0 68 0 1 3
5.3 11.3 0.2 90 0 1 3
5.3 11.4 0.4 75 0 1 3
5.3 11.8 0.9 150 0 1 3
5.3 12 1 147 0 1 3
5.3 12.1 1 146 0 1 3
5.4 10.5 -0.1 140 0 1 1
5.4 11.3 0 149 0 1 1
5.4 11.4 0 61 0 1 3
5.4 11.4 0.2 61 0 1 3
5.4 11.9 0.9 138 0 1 3
5.4 12.1 0.9 143 0 1 3
5.4 12.2 1 144 0 1 3
5.5 11.4 0.4 92 0 1 3
5.6 11.4 0.1 78 0 1 3
5.6 11.7 0.7 119 0 1 3
5.6 12.2 0.8 148 0 1 3
5.7 11.5 0.4 128 0 1 3
5.8 11.3 -0.1 103 0 1 1
5.8 11.6 0.2 127 0 1 3
5.8 11.7 0 134 0 1 1
6.2 12.1 0 123 0 1 1
6.2 12.5 0 138 0 1 1
6.6 12.9 0 141 0 1 1
6.6 13.3 0 123 0 1 1
7 13.7 0 115 0 1 1
7 14.1 0 107 0 1 1
7.4 14.5 0 135 0 1 1
7.8 15.2 0 140 0 1 1
7.8 15.6 0 124 0 1 1
8.2 16 0 142 0 1 1
8.2 16.4 0 132 0 1 1
8.6 16.8 0 138 0 1 1
8.6 17.2 0 133 0 1 1
8.6 17.6 0 129 0 1 1
9 17.6 0 134 0 1 1
9 17.7 0 120 0 1 1
