-6.8 13.3 0.9 53 0 1 5
-6.5 13.6 1.2 66 0 1 5
-6.2 12.7 1 57 0 1 5
-6 13.7 1.4 63 0 1 5
-5.9 12.8 1.1 64 0 1 5
-5.9 13.1 1.3 61 0 1 5
-5.6 13.6 1.6 69 0 1 5
-5.5 12.6 1.1 66 0 1 5
-5.5 13.2 1.5 51 0 1 5
-5.4 10.5 0.8 42 0 1 5
-5.1 10.9 1.1 65 0 1 5
-5.1 13.4 1.8 74 0 1 5
-5 12.9 1.5 54 0 1 5
-4.8 9.6 0.3 86 0 1 5
-4.6 8.9 0 54 0 1 5
-4.6 9.2 0.1 83 0 1 5
-4.5 10.5 1.2 75 0 1 5
-4.5 13.1 1.9 60 0 1 5
-4.5 13.4 2.1 72 0 1 5
-4.4 8.6 0 117 0 1 1
-4.1 9.9 0.7 79 0 1 5
-4.1 10.9 1.5 76 0 1 5
-4.1 13 2 55 0 1 5
-4.1 13.4 2.2 76 0 1 5
-4 7.8 0 84 0 1 1
-4 8.2 0 109 0 1 1
-4 8.6 0 89 0 1 1
-3.8 11.1 1.8 90 0 1 5
-3.7 11.3 1.9 61 0 1 5
-3.7 11.5 1.9 81 0 1 5
-3.7 13 2.1 65 0 1 5
-3.6 7 0 79 0 1 1
-3.6 7.4 0 62 0 1 1
-3.6 7.8 0 99 0 1 1
-3.6 8.2 0 92 0 1 1
-3.6 8.6 0 110 0 1 1
-3.5 13.3 2.4 73 0 1 5
-3.4 11.3 2 84 0 1 5
-3.3 10.6 1.4 85 0 1 5
-3.3 11.7 2.1 68 0 1 5
-3.2 6.2 0 105 0 1 1
-3.2 6.6 0 76 0 1 1
-3.2 7 0 106 0 1 1
-3.2 7.4 0 82 0 1 1
-3.2 7.8 0 104 0 1 1
-3.2 8.2 0 106 0 1 1
-3.2 8.6 0 98 0 1 1
-3.2 11.5 2.1 75 0 1 5
-3.1 11.6 2.2 75 0 1 5
-3 9.6 0.5 75 0 1 5
-3 10.3 1.2 78 0 1 5
-2.9 8.8 0 85 0 1 5
-2.9 11.8 2.3 76 0 1 5
-2.8 5.4 0 122 0 1 1
-2.8 5.5 0 100 0 1 2
-2.8 7 0 73 0 1 1
-2.8 7.4 0 105 0 1 1
-2.8 7.8 0 101 0 1 1
-2.8 8.2 0 36 0 1 1
-2.8 8.6 0 104 0 1 1
-2.8 9 0 95 0 1 1
-2.8 9.2 0.2 82 0 1 5
-2.8 13.2 2.5 80 0 1 5
-2.7 5.3 0 92 0 1 2
-2.7 5.7 0.1 71 0 1 2
-2.6 5.5 0.1 66 0 1 2
-2.6 5.7 0.2 68 0 1 2
-2.6 5.9 0.2 62 0 1 2
-2.6 10.6 1.4 94 0 1 5
-2.6 11 1.7 95 0 1 5
-2.6 12 2.4 90 0 1 5
-2.6 13.1 2.5 89 0 1 5
-2.4 4.7 0 73 0 1 1
-2.4 5 0 103 0 1 1
-2.4 5.3 0 72 0 1 2
-2.4 5.8 0.2 91 0 1 2
-2.4 7.8 0 98 0 1 1
-2.4 8.2 0 55 0 1 1
-2.4 8.6 0 62 0 1 1
-2.4 9 0 108 0 1 1
-2.4 12.6 2.5 84 0 1 5
-2.3 6.2 0.3 82 0 1 2
-2.3 11.3 1.9 93 0 1 5
-2.3 11.5 2.1 87 0 1 5
-2.3 12.9 2.6 83 0 1 5
-2.2 5.3 0.1 88 0 1 2
-2.1 6 0.3 65 0 1 2
-2.1 6.2 0.3 97 0 1 2
-2.1 10.2 1.2 81 0 1 5
-2.1 11.8 2.3 89 0 1 5
-2.1 12.1 2.5 89 0 1 5
-2.1 12.3 2.6 89 0 1 5
-2.1 12.6 2.6 76 0 1 5
-2 3.9 0 114 0 1 1
-2 4.3 0 87 0 1 1
-2 4.7 0 103 0 1 1
-2 5 0 100 0 1 1
-2 5.4 0.1 80 0 1 2
-2 5.8 0.3 57 0 1 2
-2 5.9 0.4 88 0 1 2
-2 7.8 0 109 0 1 1
-2 8.2 0 114 0 1 1
-2 8.6 0 117 0 1 1
-2 9 0 91 0 1 1
-2 9.4 0 99 0 1 1
-2 10.6 1.5 91 0 1 5
-2 11.2 1.7 80 0 1 5
-2 11.9 2.4 80 0 1 5
-1.9 6 0.4 82 0 1 2
-1.9 6.2 0.3 90 0 1 2
-1.9 11.3 1.9 63 0 1 5
-1.9 11.7 2.2 93 0 1 5
-1.8 5.6 0.2 85 0 1 2
-1.8 5.7 0.3 94 0 1 2
-1.8 5.9 0.4 93 0 1 2
-1.8 12.2 2.5 92 0 1 5
-1.7 5.5 0.2 96 0 1 2
-1.7 11.8 2.3 80 0 1 5
-1.7 12.6 2.6 89 0 1 5
-1.6 3.9 0 123 0 1 1
-1.6 4.3 0 89 0 1 1
-1.6 4.7 0 114 0 1 1
-1.6 5 0 105 0 1 1
-1.6 5.3 0 100 0 1 2
-1.6 6.2 0.3 112 0 1 2
-1.6 7.4 0 105 0 1 1
-1.6 7.8 0 111 0 1 1
-1.6 8.2 0 88 0 1 1
-1.6 8.6 0 119 0 1 1
-1.6 9 0 114 0 1 1
-1.6 9.4 0 88 0 1 1
-1.6 9.4 0.4 42 0 1 5
-1.6 9.8 0 88 0 1 1
-1.6 11.1 1.7 80 0 1 5
-1.6 12.3 2.6 87 0 1 5
-1.5 5.8 0.3 116 0 1 2
-1.5 11.2 1.9 52 0 1 5
-1.5 11.5 2.2 71 0 1 5
-1.5 12 2.5 83 0 1 5
-1.5 12.4 2.6 97 0 1 5
-1.5 12.9 2.7 92 0 1 5
-1.4 5.6 0.1 115 0 1 2
-1.4 6.3 0.1 108 0 1 2
-1.4 11.7 2.4 79 0 1 5
-1.3 5.9 0.2 122 0 1 2
-1.3 12 2.5 104 0 1 5
-1.2 3.5 0 85 0 1 1
-1.2 3.9 0 108 0 1 1
-1.2 4.3 0 111 0 1 1
-1.2 4.7 0 69 0 1 1
-1.2 5 0 101 0 1 1
-1.2 5.4 0 93 0 1 1
-1.2 5.9 0.1 128 0 1 2
-1.2 6.4 0 101 0 1 2
-1.2 6.6 0 111 0 1 1
-1.2 7 0 71 0 1 1
-1.2 7.4 0 95 0 1 1
-1.2 7.8 0 108 0 1 1
-1.2 8.2 0 111 0 1 1
-1.2 8.6 0 118 0 1 1
-1.2 9 0 111 0 1 1
-1.2 9.1 0.1 78 0 1 5
-1.2 9.4 0 119 0 1 1
-1.2 9.8 0 107 0 1 1
-1.2 11.5 2.3 100 0 1 5
-1.2 13.1 2.7 91 0 1 5
-1.1 11 1.6 70 0 1 5
-1.1 11.3 2.1 57 0 1 5
-1.1 12.3 2.5 110 0 1 5
-1 10.8 1.5 91 0 1 5
-1 11.7 2.3 107 0 1 5
-0.9 11.3 2.2 86 0 1 5
-0.9 13.4 2.7 87 0 1 5
-0.9 13.5 2.7 105 0 1 5
-0.8 3.5 0 102 0 1 1
-0.8 3.9 0 109 0 1 1
-0.8 4.3 0 101 0 1 1
-0.8 4.7 0 103 0 1 1
-0.8 5 0 101 0 1 1
-0.8 5.4 0 94 0 1 1
-0.8 5.8 0 110 0 1 1
-0.8 6.2 0 97 0 1 1
-0.8 6.6 0 109 0 1 1
-0.8 7 0 94 0 1 1
-0.8 7.4 0 87 0 1 1
-0.8 7.8 0 129 0 1 1
-0.8 8.2 0 100 0 1 1
-0.8 8.6 0 128 0 1 1
-0.8 9 0 101 0 1 1
-0.8 9.4 0 100 0 1 1
-0.8 9.8 0 100 0 1 1
-0.8 10.5 1.3 76 0 1 5
-0.8 10.9 1.6 65 0 1 5
-0.8 11.5 2.2 109 0 1 5
-0.8 11.9 2.4 113 0 1 5
-0.8 12.3 2.5 103 0 1 5
-0.7 11.1 1.8 47 0 1 5
-0.7 11.3 2.1 91 0 1 5
-0.7 11.6 2.3 102 0 1 5
-0.7 13.7 2.7 91 0 1 5
-0.6 10 0.9 89 0 1 5
-0.6 11.2 2.1 54 0 1 5
-0.5 11.2 2.1 106 0 1 5
-0.5 11.8 2.3 109 0 1 5
-0.4 3.5 0 97 0 1 1
-0.4 3.9 0 114 0 1 1
-0.4 4.3 0 122 0 1 1
-0.4 4.7 0 112 0 1 1
-0.4 5 0 121 0 1 1
-0.4 5.4 0 82 0 1 1
-0.4 5.8 0 107 0 1 1
-0.4 6.2 0 107 0 1 1
-0.4 6.6 0 106 0 1 1
-0.4 7 0 96 0 1 1
-0.4 7.4 0 113 0 1 1
-0.4 7.8 0 83 0 1 1
-0.4 8.2 0 118 0 1 1
-0.4 8.6 0 109 0 1 1
-0.4 9 0 111 0 1 1
-0.4 9.4 0 113 0 1 1
-0.4 10.7 1.6 42 0 1 5
-0.4 10.8 1.7 45 0 1 5
-0.4 11.5 2.1 86 0 1 5
-0.4 11.6 2.2 111 0 1 5
-0.4 12.1 2.4 118 0 1 5
-0.4 14 2.7 88 0 1 5
-0.3 11 2 90 0 1 5
-0.3 11.2 2 117 0 1 5
-0.2 11.3 2 101 0 1 5
0 3.1 0 122 0 1 1
0 3.5 -0.1 118 0 1 1
0 3.9 -0.1 105 0 1 1
0 4.3 -0.1 127 0 1 1
0 4.7 -0.1 88 0 1 1
0 5.1 -0.1 132 0 1 1
0 5.5 -0.1 117 0 1 1
0 5.8 -0.1 121 0 1 1
0 6.2 0 84 0 1 1
0 6.6 0 99 0 1 1
0 7 0 92 0 1 1
0 7.4 0 106 0 1 1
0 7.8 0 115 0 1 1
0 8.2 0 106 0 1 1
0 8.6 0 119 0 1 1
0 9 0 101 0 1 1
0 9.4 0 85 0 1 1
-0.1 9.4 0.4 78 0 1 5
-0.1 10.5 1.4 62 0 1 5
-0.1 10.8 1.8 75 0 1 5
-0.1 11 1.9 97 0 1 5
0 13.9 2.5 117 0 1 5
-0.1 14.3 2.6 92 0 1 5
0.1 10.1 1 90 0 1 5
0.1 11.9 2.3 99 0 1 5
0.1 12.2 2.4 112 0 1 5
0.1 14.5 2.6 113 0 1 5
0.2 14.6 2.5 113 0 1 5
0.3 3.1 -0.1 113 0 1 1
0.3 6.2 -0.1 101 0 1 1
0.3 6.6 0 94 0 1 1
0.3 7 0 107 0 1 1
0.3 7.4 0 105 0 1 1
0.3 7.8 0 122 0 1 1
0.3 8.2 0 96 0 1 1
0.3 8.6 0 100 0 1 1
0.3 9 0 101 0 1 1
0.3 9.4 0 109 0 1 1
0.3 9.9 0.8 81 0 1 5
0.3 10.2 1.2 64 0 1 5
0.3 10.5 1.6 75 0 1 5
0.4 3.5 -0.2 119 0 1 1
0.4 3.9 -0.3 109 0 1 1
0.4 4.3 -0.4 122 0 1 1
0.4 4.7 -0.4 124 0 1 1
0.4 5.1 -0.4 136 0 1 1
0.4 5.5 -0.3 126 0 1 1
0.4 5.9 -0.2 137 0 1 1
0.4 10.4 1.4 69 0 1 5
0.5 10.8 1.8 95 0 1 5
0.6 10.1 1.1 81 0 1 5
0.6 10.3 1.3 68 0 1 5
0.7 3.1 -0.1 118 0 1 1
0.7 6.2 -0.1 105 0 1 1
0.7 6.6 0 111 0 1 1
0.7 7 0 105 0 1 1
0.7 7.4 0 81 0 1 1
0.7 7.8 0 121 0 1 1
0.7 8.2 0 100 0 1 1
0.7 8.6 0 109 0 1 1
0.7 9 0 115 0 1 1
0.7 10 1 90 0 1 5
0.7 10.4 1.3 98 0 1 5
0.7 11.2 2.1 81 0 1 5
0.7 11.5 2.2 94 0 1 5
0.8 3.5 -0.3 84 0 1 1
0.8 4 -0.5 107 0 1 4
0.8 4.4 -0.6 102 0 1 4
0.8 4.8 -0.6 108 0 1 4
0.8 5.2 -0.6 97 0 1 4
0.8 5.6 -0.5 122 0 1 1
0.8 5.9 -0.3 104 0 1 1
0.8 8.9 0 99 0 1 5
0.8 12 2.4 104 0 1 5
0.9 12.3 2.5 97 0 1 5
1 11 2 92 0 1 5
1.1 3.1 -0.1 138 0 1 1
1.1 6.2 -0.1 101 0 1 1
1.1 6.6 0 109 0 1 1
1.1 7 0 102 0 1 1
1.1 7.4 0 92 0 1 1
1.1 7.8 0 96 0 1 1
1.1 8.2 0 74 0 1 1
1.1 8.6 0 119 0 1 1
1.1 9 0 95 0 1 1
1.1 9.7 0.7 83 0 1 5
1.1 9.8 0.8 105 0 1 5
1.1 10 0.9 106 0 1 5
1.2 3.6 -0.4 96 0 1 1
1.2 4 -0.6 90 0 1 4
1.2 5.6 -0.6 78 0 1 4
1.2 5.9 -0.4 105 0 1 1
1.3 4.4 -0.7 103 0 1 4
1.3 4.8 -0.7 107 0 1 4
1.3 5.2 -0.7 100 0 1 4
1.3 11.3 2.2 106 0 1 5
1.4 11.9 2.4 106 0 1 5
1.5 6.2 -0.1 131 0 1 1
1.5 6.6 0 116 0 1 1
1.5 7 0 98 0 1 1
1.5 7.4 0 116 0 1 1
1.5 7.8 0 108 0 1 1
1.5 8.2 0 103 0 1 1
1.5 8.6 0 100 0 1 1
1.5 9 0 129 0 1 1
1.6 3.2 -0.4 128 0 1 1
1.6 3.6 -0.4 121 0 1 1
1.6 4 -0.6 96 0 1 4
1.6 5.6 -0.6 72 0 1 4
1.6 5.9 -0.4 70 0 1 1
1.6 9.3 0.3 105 0 1 5
1.7 4.4 -0.7 106 0 1 4
1.7 4.8 -0.7 88 0 1 4
1.7 5.2 -0.7 49 0 1 4
1.8 10.4 1.4 107 0 1 5
1.8 12.1 2.4 109 0 1 5
1.9 6.2 -0.1 89 0 1 1
1.9 6.6 0 114 0 1 1
1.9 7 0 111 0 1 1
1.9 7.4 0 113 0 1 1
1.9 7.8 0 103 0 1 1
1.9 8.2 0 112 0 1 1
1.9 8.6 0 114 0 1 1
1.9 9 0 110 0 1 1
1.9 11.1 2 119 0 1 5
2 3.2 -0.6 128 0 1 4
2 3.6 -0.6 110 0 1 4
2 4 -0.6 74 0 1 4
2 4.4 -0.7 91 0 1 4
2 4.8 -0.7 92 0 1 4
2 5.2 -0.7 99 0 1 4
2 5.6 -0.6 93 0 1 4
2 5.9 -0.4 73 0 1 1
2.1 9.1 0.2 110 0 1 5
2.2 9.6 0.6 110 0 1 5
2.2 11.7 2.3 114 0 1 5
2.3 6.2 -0.1 112 0 1 1
2.3 6.6 0 116 0 1 1
2.3 7 0 115 0 1 1
2.3 7.4 0 106 0 1 1
2.3 7.8 0 117 0 1 1
2.3 8.2 0 113 0 1 1
2.3 8.6 0 119 0 1 1
2.3 11.4 2.2 113 0 1 5
2.4 3.3 -0.7 110 0 1 4
2.4 3.7 -0.7 113 0 1 4
2.4 4.1 -0.7 112 0 1 4
2.4 4.4 -0.7 86 0 1 4
2.4 4.8 -0.7 103 0 1 4
2.4 5.2 -0.7 99 0 1 4
2.4 5.6 -0.6 101 0 1 4
2.4 5.9 -0.4 97 0 1 1
2.6 9.9 0.8 110 0 1 5
2.6 10.8 1.7 111 0 1 5
2.7 6.2 -0.1 103 0 1 1
2.7 6.6 0 118 0 1 1
2.7 7 0 120 0 1 1
2.7 7.4 0 120 0 1 1
2.7 7.8 0 120 0 1 1
2.7 8.2 0 105 0 1 1
2.7 8.6 0 108 0 1 1
2.8 3.3 -0.7 93 0 1 4
2.8 3.7 -0.7 94 0 1 4
2.8 4.1 -0.7 107 0 1 4
2.8 4.4 -0.7 96 0 1 4
2.8 4.8 -0.7 69 0 1 4
2.8 5.2 -0.7 103 0 1 4
2.8 5.6 -0.6 86 0 1 4
2.8 5.9 -0.4 98 0 1 1
2.8 8.8 0 111 0 1 5
2.9 12.1 2.3 115 0 1 5
3 11.4 2.1 128 0 1 5
3.1 6.2 -0.1 77 0 1 1
3.1 6.6 0 119 0 1 1
3.1 7 0 121 0 1 1
3.1 7.4 0 98 0 1 1
3.1 7.8 0 106 0 1 1
3.1 8.2 0 121 0 1 1
3.1 8.6 0 114 0 1 1
3.1 9.5 0.3 119 0 1 5
3.1 10.4 1.2 122 0 1 5
3.2 3.3 -0.7 97 0 1 4
3.2 3.7 -0.7 101 0 1 4
3.2 4.1 -0.7 106 0 1 4
3.2 4.4 -0.7 108 0 1 4
3.2 4.8 -0.7 98 0 1 4
3.2 5.2 -0.7 88 0 1 4
3.2 5.6 -0.6 99 0 1 4
3.2 5.9 -0.4 95 0 1 1
3.2 11.1 1.9 127 0 1 5
3.5 2.4 -0.4 111 0 1 1
3.5 5.9 -0.3 54 0 1 1
3.5 6.2 -0.1 95 0 1 1
3.5 6.6 0 115 0 1 1
3.5 7 0 118 0 1 1
3.5 7.4 0 129 0 1 1
3.5 7.8 0 124 0 1 1
3.5 8.2 0 125 0 1 1
3.5 8.6 0 106 0 1 1
3.5 9 0 120 0 1 1
3.6 2.8 -0.6 69 0 1 4
3.6 3.3 -0.7 93 0 1 4
3.6 3.7 -0.7 94 0 1 4
3.6 4.1 -0.7 84 0 1 4
3.6 4.4 -0.7 92 0 1 4
3.6 4.8 -0.6 76 0 1 4
3.6 5.2 -0.6 69 0 1 4
3.6 5.6 -0.5 58 0 1 1
3.6 11.7 2.1 130 0 1 5
3.6 12.1 2.1 108 0 1 5
3.7 9.8 0.6 123 0 1 5
3.7 10.5 1.1 134 0 1 5
3.8 11.2 1.7 137 0 1 5
3.9 1.9 -0.1 118 0 1 1
3.9 2.4 -0.3 92 0 1 1
3.9 5.1 -0.4 39 0 1 4
3.9 5.5 -0.3 49 0 1 1
3.9 5.9 -0.2 59 0 1 1
3.9 6.2 -0.1 104 0 1 1
3.9 6.6 0 113 0 1 1
3.9 7 0 119 0 1 1
3.9 7.4 0 123 0 1 1
3.9 7.8 0 128 0 1 1
3.9 8.2 0 118 0 1 1
3.9 8.6 0 127 0 1 1
3.9 9 0 121 0 1 1
3.9 9.4 0.2 123 0 1 5
4 2.8 -0.5 88 0 1 4
4 3.2 -0.6 48 0 1 4
4 3.6 -0.6 47 0 1 4
4 4 -0.6 77 0 1 4
4 4.4 -0.6 36 0 1 4
4 4.8 -0.5 64 0 1 4
4.1 10.6 1 149 0 1 5
4.1 11.5 1.7 151 0 1 5
4.1 11.9 2 100 0 1 5
4.3 2.3 -0.2 104 0 1 1
4.3 2.8 -0.3 69 0 1 1
4.3 3.2 -0.4 55 0 1 1
4.3 3.6 -0.4 45 0 1 1
4.3 4 -0.4 28 0 1 1
4.3 4.3 -0.4 41 0 1 1
4.3 4.7 -0.3 52 0 1 1
4.3 5.1 -0.2 100 0 1 1
4.3 5.5 -0.1 81 0 1 1
4.3 5.8 -0.1 81 0 1 1
4.3 6.2 0 122 0 1 1
4.3 6.6 0 123 0 1 1
4.3 7 0 137 0 1 1
4.3 7.4 0 118 0 1 1
4.3 7.8 0 115 0 1 1
4.3 8.2 0 121 0 1 1
4.3 8.6 0 126 0 1 1
4.3 9 0 125 0 1 1
4.3 11.1 1.4 157 0 1 5
4.4 11.7 1.8 152 0 1 5
4.5 10 0.5 130 0 1 5
4.6 12 1.9 82 0 1 5
4.7 2.3 -0.1 137 0 1 1
4.7 2.7 -0.1 127 0 1 1
4.7 3.1 -0.1 81 0 1 1
4.7 3.5 -0.1 95 0 1 1
4.7 3.9 -0.1 101 0 1 1
4.7 4.3 -0.1 76 0 1 1
4.7 4.7 -0.1 99 0 1 1
4.7 5.1 -0.1 78 0 1 1
4.7 5.4 0 108 0 1 1
4.7 5.8 0 119 0 1 1
4.7 6.2 0 131 0 1 1
4.7 6.6 0 132 0 1 1
4.7 7 0 118 0 1 1
4.7 7.4 0 123 0 1 1
4.7 7.8 0 121 0 1 1
4.7 8.2 0 120 0 1 1
4.7 8.6 0 141 0 1 1
4.7 9 0 111 0 1 1
4.7 11.8 1.7 157 0 1 5
4.8 9.2 0 129 0 1 5
4.8 10.9 1 150 0 1 5
4.8 11.6 1.5 160 0 1 5
4.9 12.1 1.8 95 0 1 5
4.9 12.3 1.8 149 0 1 5
5 2.7 0 144 0 1 1
5 3.1 0 148 0 1 1
5 3.5 0 152 0 1 1
5 3.9 0 109 0 1 1
5 4.3 0 120 0 1 1
5 4.7 0 89 0 1 1
5 5 0 127 0 1 1
5 5.4 0 104 0 1 1
5 5.8 0 129 0 1 1
5 6.2 0 121 0 1 1
5 6.6 0 124 0 1 1
5 7 0 124 0 1 1
5 7.4 0 93 0 1 1
5 7.8 0 127 0 1 1
5 8.2 0 124 0 1 1
5 8.6 0 122 0 1 1
5 9 0 126 0 1 1
5 9.4 0 115 0 1 1
5.1 9.6 0.2 133 0 1 5
5.1 10.8 0.8 138 0 1 5
5.2 11.4 1.1 156 0 1 5
5.4 2.7 0 162 0 1 1
5.4 3.1 0 160 0 1 1
5.4 3.5 0 144 0 1 1
5.4 3.9 0 130 0 1 1
5.4 4.3 0 134 0 1 1
5.4 4.7 0 126 0 1 1
5.4 5 0 142 0 1 1
5.4 5.4 0 138 0 1 1
5.4 5.8 0 124 0 1 1
5.4 6.2 0 132 0 1 1
5.4 6.6 0 127 0 1 1
5.4 7 0 131 0 1 1
5.4 7.4 0 127 0 1 1
5.4 7.8 0 129 0 1 1
5.4 8.2 0 117 0 1 1
5.4 8.6 0 130 0 1 1
5.4 9 0 132 0 1 1
5.4 9.4 0 130 0 1 1
5.4 12.1 1.5 153 0 1 5
5.4 12.4 1.6 120 0 1 5
5.5 11.2 0.8 144 0 1 5
5.5 11.9 1.2 154 0 1 5
5.6 11.4 0.8 149 0 1 5
5.8 3.1 0 155 0 1 1
5.8 3.5 0 152 0 1 1
5.8 3.9 0 147 0 1 1
5.8 4.3 0 147 0 1 1
5.8 4.7 0 144 0 1 1
5.8 5 0 127 0 1 1
5.8 5.4 0 140 0 1 1
5.8 5.8 0 107 0 1 1
5.8 6.2 0 140 0 1 1
5.8 6.6 0 121 0 1 1
5.8 7 0 144 0 1 1
5.8 7.4 0 98 0 1 1
5.8 7.8 0 110 0 1 1
5.8 8.2 0 120 0 1 1
5.8 8.6 0 126 0 1 1
5.8 9 0 131 0 1 1
5.8 9.4 0 147 0 1 1
5.8 9.8 0 130 0 1 1
5.8 11.8 1 154 0 1 5
5.9 12.3 1.4 90 0 1 5
6 11.5 0.8 153 0 1 5
6.1 10.9 0.6 140 0 1 5
6.1 12 1.1 153 0 1 5
6.2 3.1 0 161 0 1 1
6.2 3.5 0 154 0 1 1
6.2 3.9 0 140 0 1 1
6.2 4.3 0 158 0 1 1
6.2 4.7 0 152 0 1 1
6.2 5 0 124 0 1 1
6.2 5.4 0 139 0 1 1
6.2 5.8 0 105 0 1 1
6.2 6.2 0 136 0 1 1
6.2 6.6 0 135 0 1 1
6.2 7 0 102 0 1 1
6.2 7.4 0 117 0 1 1
6.2 7.8 0 101 0 1 1
6.2 8.2 0 129 0 1 1
6.2 8.6 0 118 0 1 1
6.2 9 0 145 0 1 1
6.2 9.4 0 128 0 1 1
6.2 9.8 0 108 0 1 1
6.3 9.7 0.1 125 0 1 5
6.4 10.3 0.2 128 0 1 5
6.6 3.5 0 163 0 1 1
6.6 3.9 0 144 0 1 1
6.6 4.3 0 159 0 1 1
6.6 4.7 0 142 0 1 1
6.6 5 0 147 0 1 1
6.6 5.4 0 143 0 1 1
6.6 5.8 0 134 0 1 1
6.6 6.2 0 133 0 1 1
6.6 6.6 0 129 0 1 1
6.6 7 0 138 0 1 1
6.6 7.4 0 132 0 1 1
6.6 7.8 0 130 0 1 1
6.6 8.2 0 122 0 1 1
6.6 8.6 0 132 0 1 1
6.6 9 0 132 0 1 1
6.6 9.4 0 92 0 1 1
6.6 9.8 0 116 0 1 1
6.6 10.1 0 114 0 1 1
6.6 12.3 1 157 0 1 5
6.7 12.6 1 107 0 1 5
7 3.5 0 164 0 1 1
7 3.9 0 162 0 1 1
7 4.3 0 157 0 1 1
7 4.7 0 134 0 1 1
7 5 0 149 0 1 1
7 5.4 0 147 0 1 1
7 5.8 0 132 0 1 1
7 6.2 0 144 0 1 1
7 6.6 0 139 0 1 1
7 7 0 139 0 1 1
7 7.4 0 133 0 1 1
7 7.8 0 134 0 1 1
7 8.2 0 138 0 1 1
7 8.6 0 124 0 1 1
7 9 0 131 0 1 1
7 9.4 0 123 0 1 1
7 9.8 0 124 0 1 1
7 10.1 0 101 0 1 1
7 11.7 0.5 158 0 1 5
7.1 10.8 0.3 148 0 1 5
7.1 11.3 0.4 147 0 1 5
7.1 12 0.7 161 0 1 5
7.4 3.9 0 161 0 1 1
7.4 4.3 0 158 0 1 1
7.4 4.7 0 150 0 1 1
7.4 5 0 144 0 1 1
7.4 5.4 0 157 0 1 1
7.4 5.8 0 151 0 1 1
7.4 6.2 0 146 0 1 1
7.4 6.6 0 125 0 1 1
7.4 7 0 143 0 1 1
7.4 7.4 0 134 0 1 1
7.4 7.8 0 145 0 1 1
7.4 8.2 0 121 0 1 1
7.4 8.6 0 140 0 1 1
7.4 9 0 135 0 1 1
7.4 9.4 0 121 0 1 1
7.4 9.8 0 129 0 1 1
7.4 10.1 0 134 0 1 1
7.4 10.5 0 110 0 1 1
7.5 11.7 0.4 158 0 1 5
7.8 3.9 0 167 0 1 1
7.8 4.3 0 161 0 1 1
7.8 4.7 0 160 0 1 1
7.8 5 0 145 0 1 1
7.8 5.4 0 172 0 1 1
7.8 5.8 0 150 0 1 1
7.8 6.2 0 144 0 1 1
7.8 6.6 0 145 0 1 1
7.8 7 0 142 0 1 1
7.8 7.4 0 137 0 1 1
7.8 7.8 0 134 0 1 1
7.8 8.2 0 141 0 1 1
7.8 8.6 0 142 0 1 1
7.8 9 0 103 0 1 1
7.8 9.4 0 120 0 1 1
7.8 9.8 0 139 0 1 1
7.8 10.1 0 117 0 1 1
7.8 10.5 0 135 0 1 1
7.8 10.5 0.1 140 0 1 5
8 12 0.3 159 0 1 5
8.2 4.3 0 167 0 1 1
8.2 4.7 0 163 0 1 1
8.2 5 0 156 0 1 1
8.2 5.4 0 151 0 1 1
8.2 5.8 0 156 0 1 1
8.2 6.2 0 146 0 1 1
8.2 6.6 0 142 0 1 1
8.2 7 0 141 0 1 1
8.2 7.4 0 140 0 1 1
8.2 7.8 0 134 0 1 1
8.2 8.2 0 138 0 1 1
8.2 8.6 0 131 0 1 1
8.2 9 0 124 0 1 1
8.2 9.4 0 128 0 1 1
8.2 9.8 0 128 0 1 1
8.2 10.1 0 125 0 1 1
8.2 10.5 0 133 0 1 1
8.2 10.9 0 117 0 1 1
8.3 11.4 0.1 143 0 1 5
8.5 12.1 0.1 135 0 1 5
8.6 4.3 0 158 0 1 1
8.6 4.7 0 168 0 1 1
8.6 5 0 155 0 1 1
8.6 5.4 0 160 0 1 1
8.6 5.8 0 161 0 1 1
8.6 6.2 0 149 0 1 1
8.6 6.6 0 144 0 1 1
8.6 7 0 147 0 1 1
8.6 7.4 0 144 0 1 1
8.6 7.8 0 142 0 1 1
8.6 8.2 0 136 0 1 1
8.6 8.6 0 130 0 1 1
8.6 9 0 125 0 1 1
8.6 9.4 0 135 0 1 1
8.6 9.8 0 128 0 1 1
8.6 10.1 0 137 0 1 1
8.6 10.5 0 112 0 1 1
8.6 10.8 0 134 0 1 5
8.6 10.9 0 153 0 1 1
8.6 12.7 0.1 159 0 1 5
9 4.7 0 156 0 1 1
9 5 0 160 0 1 1
9 5.4 0 160 0 1 1
9 5.8 0 160 0 1 1
9 6.2 0 150 0 1 1
9 6.6 0 151 0 1 1
9 7 0 148 0 1 1
9 7.4 0 151 0 1 1
9 7.8 0 143 0 1 1
9 8.2 0 128 0 1 1
9 8.6 0 131 0 1 1
9 9 0 134 0 1 1
9 9.4 0 141 0 1 1
9 9.8 0 105 0 1 1
9 10.1 0 131 0 1 1
9 10.5 0 137 0 1 1
9 10.9 0 136 0 1 1
9 11.3 0 129 0 1 1
9 11.7 0 126 0 1 1
9 12.1 0 126 0 1 1
9 12.5 0 125 0 1 1
9.4 5 0 170 0 1 1
9.4 5.4 0 164 0 1 1
9.4 5.8 0 161 0 1 1
9.4 6.2 0 156 0 1 1
9.4 6.6 0 156 0 1 1
9.4 7 0 136 0 1 1
9.4 7.4 0 152 0 1 1
9.4 7.8 0 144 0 1 1
9.4 8.2 0 124 0 1 1
9.4 8.6 0 78 0 1 1
9.4 9 0 114 0 1 1
9.4 9.4 0 136 0 1 1
9.4 9.8 0 141 0 1 1
9.4 10.1 0 110 0 1 1
9.4 10.5 0 119 0 1 1
9.4 10.9 0 120 0 1 1
9.4 11.3 0 123 0 1 1
9.4 11.7 0 131 0 1 1
9.4 12.1 0 129 0 1 1
9.4 12.5 0 126 0 1 1
9.4 12.9 0 121 0 1 1
9.4 13.3 0 126 0 1 1
9.4 13.7 0 128 0 1 1
9.6 8.7 0 45 0 1 3
9.6 8.8 0.3 26 0 1 3
9.6 8.9 0.1 38 0 1 3
9.6 9.1 0.3 28 0 1 3
9.6 9.4 0.4 31 0 1 3
9.7 8.6 0.2 27 0 1 3
9.7 8.9 0.6 28 0 1 3
9.7 9.2 0.7 24 0 1 3
9.7 9.2 0.9 33 0 1 3
9.7 9.5 0.8 44 0 1 3
9.8 5 0 162 0 1 1
9.8 5.4 0 162 0 1 1
9.8 5.8 0 161 0 1 1
9.8 6.2 0 158 0 1 1
9.8 6.6 0 154 0 1 1
9.8 7 0 156 0 1 1
9.8 7.4 0 151 0 1 1
9.8 7.8 0 148 0 1 1
9.8 8.2 0 112 0 1 1
9.8 8.5 0.6 28 0 1 3
9.8 8.6 0 47 0 1 1
9.8 8.9 0.8 24 0 1 3
9.8 9.1 1 59 0 1 3
9.8 9.4 0.9 32 0 1 3
9.8 9.5 0 89 0 1 3
9.8 9.8 0 134 0 1 1
9.8 9.8 0.3 133 0 1 3
9.8 10.1 0 116 0 1 1
9.8 10.5 0 118 0 1 1
9.8 10.9 0 125 0 1 1
9.8 11.3 0 126 0 1 1
9.8 11.7 0 118 0 1 1
9.8 12.1 0 123 0 1 1
9.8 12.5 0 129 0 1 1
9.8 12.9 0 126 0 1 1
9.8 13.3 0 123 0 1 1
9.8 13.7 0 116 0 1 1
9.8 14.1 0 123 0 1 1
9.8 14.5 0 131 0 1 1
9.8 14.9 0 140 0 1 1
9.9 8.4 0.5 27 0 1 3
9.9 8.8 1 81 0 1 3
9.9 9.7 -0.1 134 0 1 3
10 8.5 -0.1 46 0 1 3
10 9.6 1 76 0 1 3
10 9.8 0.1 97 0 1 3
10.1 5.4 0 168 0 1 1
10.1 5.8 0 164 0 1 1
10.1 6.2 0 163 0 1 1
10.1 6.6 0 158 0 1 1
10.1 7 0 155 0 1 1
10.1 7.4 0 152 0 1 1
10.1 7.8 0 150 0 1 1
10.1 8.2 0 130 0 1 1
10.1 8.2 0.2 27 0 1 3
10.1 8.3 0.7 34 0 1 3
10.1 9.1 1 132 0 1 3
10.1 10.1 0 122 0 1 1
10.1 10.5 0 122 0 1 1
10.1 10.9 0 127 0 1 1
10.1 11.3 0 129 0 1 1
10.1 11.7 0 126 0 1 1
10.1 12.1 0 123 0 1 1
10.1 12.5 0 126 0 1 1
10.1 12.9 0 133 0 1 1
10.1 13.3 0 124 0 1 1
10.1 13.7 0 126 0 1 1
10.1 14.1 0 125 0 1 1
10.1 14.5 0 131 0 1 1
10.1 14.9 0 127 0 1 1
10.1 15.2 0 122 0 1 1
10.1 15.6 0 120 0 1 1
10.1 16 0 142 0 1 1
10.2 8.8 1.1 86 0 1 3
10.2 9.2 1.1 94 0 1 3
10.3 8 0.2 28 0 1 3
10.3 8.1 0 21 0 1 3
10.4 8.7 1.1 43 0 1 3
10.4 16.9 0 149 0 1 1
10.5 5.4 0 166 0 1 1
10.5 5.8 0 167 0 1 1
10.5 6.2 0 163 0 1 1
10.5 6.6 0 159 0 1 1
10.5 7 0 158 0 1 1
10.5 7.4 0 148 0 1 1
10.5 7.8 0 152 0 1 1
10.5 8.2 0.6 43 0 1 3
10.5 8.3 0.8 42 0 1 3
10.5 10.5 0 132 0 1 1
10.5 10.9 0 139 0 1 1
10.5 11.3 0 120 0 1 1
10.5 11.7 0 139 0 1 1
10.5 12.1 0 127 0 1 1
10.5 12.5 0 130 0 1 1
10.5 12.9 0 127 0 1 1
10.5 13.3 0 130 0 1 1
10.5 13.7 0 127 0 1 1
10.5 14.1 0 134 0 1 1
10.5 14.5 0 132 0 1 1
10.5 14.9 0 130 0 1 1
10.5 15.2 0 123 0 1 1
10.5 15.6 0 125 0 1 1
10.5 16 0 125 0 1 1
10.5 16.4 0 125 0 1 1
10.5 16.8 0 121 0 1 1
10.5 16.9 0 122 0 1 1
10.6 8 0.4 40 0 1 3
10.6 8.1 0.1 29 0 1 3
10.6 8.7 1.3 89 0 1 3
10.6 9 1.3 92 0 1 3
10.6 16.8 0 118 0 1 1
10.7 8 0.2 29 0 1 3
10.7 8.5 1.2 63 0 1 3
10.8 9.5 1.2 101 0 1 3
10.9 5.8 0 171 0 1 1
10.9 6.2 0 163 0 1 1
10.9 6.6 0 161 0 1 1
10.9 7 0 161 0 1 1
10.9 7.4 0 160 0 1 1
10.9 7.8 0 150 0 1 1
10.9 8.1 0.6 43 0 1 3
10.9 8.2 1 49 0 1 3
10.9 10.9 0 137 0 1 1
10.9 11.3 0 134 0 1 1
10.9 11.7 0 135 0 1 1
10.9 12.1 0 134 0 1 1
10.9 12.5 0 123 0 1 1
10.9 12.9 0 134 0 1 1
10.9 13.3 0 127 0 1 1
10.9 13.7 0 131 0 1 1
10.9 14.1 0 126 0 1 1
10.9 14.5 0 123 0 1 1
10.9 14.9 0 115 0 1 1
10.9 15.2 0 129 0 1 1
10.9 15.6 0 127 0 1 1
10.9 16 0 125 0 1 1
10.9 16.4 0 122 0 1 1
10.9 16.6 0 109 0 1 1
11 7.9 0.2 29 0 1 3
11 8.6 1.4 105 0 1 3
11.1 7.9 0.1 32 0 1 3
11.1 8.3 1.3 168 0 1 3
11.1 9.3 1.3 91 0 1 3
11.1 16.6 0 98 0 1 1
11.2 8.1 0.8 90 0 1 3
11.2 9 1.4 120 0 1 3
11.3 5.8 0 168 0 1 1
11.3 6.2 0 162 0 1 1
11.3 6.6 0 164 0 1 1
11.3 7 0 160 0 1 1
11.3 7.4 0 163 0 1 1
11.3 7.8 0 156 0 1 1
11.3 7.9 0.3 61 0 1 3
11.3 8.2 1 103 0 1 3
11.3 11.3 0 134 0 1 1
11.3 11.7 0 139 0 1 1
11.3 12.1 0 138 0 1 1
11.3 12.5 0 136 0 1 1
11.3 12.9 0 131 0 1 1
11.3 13.3 0 123 0 1 1
11.3 13.7 0 132 0 1 1
11.3 14.1 0 127 0 1 1
11.3 14.5 0 131 0 1 1
11.3 14.9 0 125 0 1 1
11.3 15.2 0 129 0 1 1
11.3 15.6 0 130 0 1 1
11.3 16 0 130 0 1 1
11.3 16.4 0 121 0 1 1
11.4 8 0.1 75 0 1 3
11.5 8.4 1.3 92 0 1 3
11.6 8 0.5 93 0 1 3
11.6 8.2 0.7 96 0 1 3
11.6 8.6 1.3 113 0 1 3
11.6 16.1 0 128 0 1 1
11.7 6.2 0 160 0 1 1
11.7 6.6 0 161 0 1 1
11.7 7 0 162 0 1 1
11.7 7.4 0 161 0 1 1
11.7 7.8 0 156 0 1 1
11.7 11.7 0 144 0 1 1
11.7 12.1 0 141 0 1 1
11.7 12.5 0 130 0 1 1
11.7 12.9 0 119 0 1 1
11.7 13.3 0 128 0 1 1
11.7 13.7 0 131 0 1 1
11.7 14.1 0 129 0 1 1
11.7 14.5 0 130 0 1 1
11.7 14.9 0 135 0 1 1
11.7 15.2 0 133 0 1 1
11.7 15.6 0 139 0 1 1
11.7 16 0 119 0 1 1
12.1 6.2 0 168 0 1 1
12.1 6.6 0 160 0 1 1
12.1 7 0 159 0 1 1
12.1 7.4 0 157 0 1 1
12.1 7.8 0 162 0 1 1
12.1 8.2 0 153 0 1 1
12.1 12.1 0 147 0 1 1
12.1 12.5 0 134 0 1 1
12.1 12.9 0 129 0 1 1
12.1 13.3 0 137 0 1 1
12.1 13.7 0 115 0 1 1
12.1 14.1 0 132 0 1 1
12.1 14.5 0 127 0 1 1
12.1 14.9 0 134 0 1 1
12.1 15.2 0 128 0 1 1
12.1 15.6 0 112 0 1 1
12.1 15.7 0 119 0 1 1
12.2 15.6 0 106 0 1 1
12.5 6.6 0 168 0 1 1
12.5 7 0 166 0 1 1
12.5 7.4 0 159 0 1 1
12.5 7.8 0 159 0 1 1
12.5 8.2 0 157 0 1 1
12.5 8.6 0 159 0 1 1
12.5 12.5 0 139 0 1 1
12.5 12.9 0 138 0 1 1
12.5 13.3 0 133 0 1 1
12.5 13.7 0 134 0 1 1
12.5 14.1 0 123 0 1 1
12.5 14.5 0 123 0 1 1
12.5 14.9 0 130 0 1 1
12.5 15.2 0 131 0 1 1
12.5 15.4 0 120 0 1 1
12.7 15.2 0 99 0 1 1
12.9 6.6 0 171 0 1 1
12.9 7 0 166 0 1 1
12.9 7.4 0 163 0 1 1
12.9 7.8 0 164 0 1 1
12.9 8.2 0 156 0 1 1
12.9 8.6 0 161 0 1 1
12.9 9 0 130 0 1 1
12.9 12.9 0 142 0 1 1
12.9 13.3 0 138 0 1 1
12.9 13.7 0 139 0 1 1
12.9 14.1 0 140 0 1 1
12.9 14.5 0 121 0 1 1
12.9 14.9 0 134 0 1 1
12.9 15.1 0 122 0 1 1
13.2 14.9 0 82 0 1 1
13.3 7 0 166 0 1 1
13.3 7.4 0 169 0 1 1
13.3 7.8 0 165 0 1 1
13.3 8.2 0 164 0 1 1
13.3 8.6 0 158 0 1 1
13.3 9 0 161 0 1 1
13.3 13.3 0 136 0 1 1
13.3 13.7 0 137 0 1 1
13.3 14.1 0 138 0 1 1
13.3 14.5 0 139 0 1 1
13.3 14.8 0 112 0 1 1
13.6 14.5 0 119 0 1 1
13.7 7 0 177 0 1 1
13.7 7.4 0 170 0 1 1
13.7 7.8 0 168 0 1 1
13.7 8.2 0 166 0 1 1
13.7 8.6 0 164 0 1 1
13.7 9 0 159 0 1 1
13.7 9.4 0 157 0 1 1
13.7 13.7 0 141 0 1 1
13.7 14.1 0 129 0 1 1
13.7 14.4 0 110 0 1 1
14.1 7.4 0 174 0 1 1
14.1 7.8 0 172 0 1 1
14.1 8.2 0 167 0 1 1
14.1 8.6 0 164 0 1 1
14.1 9 0 165 0 1 1
14.1 9.4 0 160 0 1 1
14.1 9.8 0 160 0 1 1
14.1 14.1 0 113 0 1 1
14.5 7.4 0 174 0 1 1
14.5 7.8 0 174 0 1 1
14.5 8.2 0 169 0 1 1
14.5 8.6 0 166 0 1 1
14.5 9 0 166 0 1 1
14.5 9.4 0 164 0 1 1
14.5 9.8 0 159 0 1 1
14.9 7.8 0 174 0 1 1
14.9 8.2 0 170 0 1 1
14.9 8.6 0 168 0 1 1
14.9 9 0 165 0 1 1
14.9 9.4 0 164 0 1 1
14.9 9.8 0 165 0 1 1
14.9 10.1 0 161 0 1 1
15.2 7.8 0 177 0 1 1
15.2 8.2 0 175 0 1 1
15.2 8.6 0 169 0 1 1
15.2 9 0 170 0 1 1
15.2 9.4 0 165 0 1 1
15.2 9.8 0 165 0 1 1
15.2 10.1 0 161 0 1 1
15.2 10.5 0 161 0 1 1
15.6 8.2 0 179 0 1 1
15.6 8.6 0 174 0 1 1
15.6 9 0 161 0 1 1
15.6 9.4 0 167 0 1 1
15.6 9.8 0 164 0 1 1
15.6 10.1 0 163 0 1 1
15.6 10.5 0 162 0 1 1
16 8.2 0 177 0 1 1
16 8.6 0 176 0 1 1
16 9 0 171 0 1 1
16 9.4 0 171 0 1 1
16 9.8 0 168 0 1 1
16 10.1 0 166 0 1 1
16 10.5 0 162 0 1 1
16 10.9 0 167 0 1 1
16.4 8.6 0 177 0 1 1
16.4 9 0 174 0 1 1
16.4 9.4 0 173 0 1 1
16.4 9.8 0 169 0 1 1
16.4 10.1 0 166 0 1 1
16.4 10.5 0 165 0 1 1
16.4 10.9 0 161 0 1 1
16.4 11.3 0 107 0 1 1
16.6 10.9 0 127 0 1 1
16.6 11.1 0 107 0 1 1
16.8 8.6 0 179 0 1 1
16.8 9 0 177 0 1 1
16.8 9.4 0 175 0 1 1
16.8 9.8 0 172 0 1 1
16.8 10.1 0 166 0 1 1
16.8 10.5 0 164 0 1 1
16.8 10.6 0 135 0 1 1
16.9 10.5 0 161 0 1 1
17.1 10.1 0 135 0 1 1
17.2 9 0 176 0 1 1
17.2 9.4 0 176 0 1 1
17.2 9.8 0 169 0 1 1
17.2 9.9 0 156 0 1 1
17.3 9.8 0 164 0 1 1
17.5 9.4 0 171 0 1 1
17.6 9 0 180 0 1 1
17.6 9.2 0 151 0 1 1
17.7 9 0 116 0 1 1
