-19.9 1.5 0 65 0 1 1
-19.9 1.9 0 70 0 1 1
-19.8 2.3 0 80 0 1 1
-19.8 2.7 0 71 0 1 1
-19.7 1.1 0 57 0 1 1
-19.7 1.5 0 62 0 1 1
-19.7 1.9 0 63 0 1 1
-19.7 2.3 0 79 0 1 1
-19.7 2.7 0 75 0 1 1
-19.7 3.1 0 79 0 1 1
-19.7 3.5 0 84 0 1 1
-19.7 3.9 0 73 0 1 1
-19.5 4.3 0 78 0 1 1
-19.5 4.4 0 73 0 1 1
-19.4 4.7 0 74 0 1 1
-19.3 1.1 0 61 0 1 1
-19.3 1.5 0 59 0 1 1
-19.3 1.9 0 49 0 1 1
-19.3 2.3 0 57 0 1 1
-19.3 2.7 0 80 0 1 1
-19.3 3.1 0 79 0 1 1
-19.3 3.5 0 79 0 1 1
-19.3 3.9 0 75 0 1 1
-19.3 4.3 0 84 0 1 1
-19.3 4.7 0 83 0 1 1
-19.3 5 0 81 0 1 1
-19.3 5.2 0 71 0 1 1
-19.2 5.4 0 77 0 1 1
-19.1 5.8 0 69 0 1 1
-18.9 1.1 0 58 0 1 1
-18.9 1.5 0 51 0 1 1
-18.9 1.9 0 34 0 1 1
-18.9 2.3 0 37 0 1 1
-18.9 2.7 0 59 0 1 1
-18.9 3.1 0 71 0 1 1
-18.9 3.5 0 80 0 1 1
-18.9 3.9 0 72 0 1 1
-18.9 4.3 0 81 0 1 1
-18.9 4.7 0 59 0 1 1
-18.9 5 0 71 0 1 1
-18.9 5.4 0 79 0 1 1
-18.9 5.8 0 66 0 1 1
-18.9 6.2 0 77 0 1 1
-18.9 6.5 0 76 0 1 1
-18.8 6.6 0 79 0 1 1
-18.6 -7.5 0 71 0 1 1
-18.5 -7.8 0 64 0 1 1
-18.5 -7.7 0 63 0 1 1
-18.5 -7.5 0 73 0 1 1
-18.5 1.1 0 58 0 1 1
-18.5 1.5 0 48 0 1 1
-18.5 1.9 0 33 0 1 1
-18.5 2.3 0 28 0 1 1
-18.5 2.7 0 40 0 1 1
-18.5 3.1 0 52 0 1 1
-18.5 3.5 0 68 0 1 1
-18.5 3.9 0 83 0 1 1
-18.5 4.3 0 81 0 1 1
-18.5 4.7 0 80 0 1 1
-18.5 5 0 58 0 1 1
-18.5 5.4 0 82 0 1 1
-18.5 5.8 0 88 0 1 1
-18.5 6.2 0 71 0 1 1
-18.4 -7.9 0 67 0 1 1
-18.2 -8.3 0 78 0 1 1
-18.1 -8.5 0 72 0 1 1
-18.1 -8.3 0 89 0 1 1
-18.1 -7.9 0 78 0 1 1
-18.1 -7.5 0 95 0 1 1
-18.1 1.1 0 52 0 1 1
-18.1 1.5 0 42 0 1 1
-18.1 1.9 0 32 0 1 1
-18.1 2.3 0 35 0 1 1
-18.1 2.7 0 34 0 1 1
-18.1 3.1 0 39 0 1 1
-18.1 3.5 0 49 0 1 1
-18.1 3.9 0 66 0 1 1
-18.1 4.3 0 84 0 1 1
-18.1 4.7 0 69 0 1 1
-18.1 5 0 86 0 1 1
-18.1 5.4 0 76 0 1 1
-18.1 5.8 0 78 0 1 1
-18.1 6.2 0 88 0 1 1
-18 -8.7 0 69 0 1 1
-17.8 -9.1 0 74 0 1 1
-17.7 -9.3 0 73 0 1 1
-17.7 -9.1 0 72 0 1 1
-17.7 -8.7 0 68 0 1 1
-17.7 -8.3 0 79 0 1 1
-17.7 -7.9 0 78 0 1 1
-17.7 -7.5 0 89 0 1 1
-17.7 -7.1 0 75 0 1 1
-17.7 1.1 0 55 0 1 1
-17.7 1.5 0 31 0 1 1
-17.7 1.9 0 32 0 1 1
-17.7 2.3 0 39 0 1 1
-17.7 2.7 0 35 0 1 1
-17.7 3.1 0 38 0 1 1
-17.7 3.5 0 46 0 1 1
-17.7 3.9 0 53 0 1 1
-17.7 4.3 0 72 0 1 1
-17.7 4.7 0 81 0 1 1
-17.7 5 0 88 0 1 1
-17.7 5.4 0 87 0 1 1
-17.7 5.8 0 75 0 1 1
-17.7 6.2 0 75 0 1 1
-17.6 -9.5 0 72 0 1 1
-17.4 -9.9 0 79 0 1 1
-17.3 -10 0 76 0 1 1
-17.3 -9.9 0 76 0 1 1
-17.3 -9.5 0 93 0 1 1
-17.3 -9.1 0 88 0 1 1
-17.3 -8.7 0 89 0 1 1
-17.3 -8.3 0 79 0 1 1
-17.3 -7.9 0 86 0 1 1
-17.3 -7.5 0 89 0 1 1
-17.3 -7.1 0 92 0 1 1
-17.3 1.1 0 73 0 1 1
-17.3 1.5 0 71 0 1 1
-17.3 1.9 0 80 0 1 1
-17.3 2.3 0 87 0 1 1
-17.3 2.7 0 51 0 1 1
-17.3 3.1 0 47 0 1 1
-17.3 3.5 0 47 0 1 1
-17.3 3.9 0 50 0 1 1
-17.3 4.3 0 54 0 1 1
-17.3 4.7 0 75 0 1 1
-17.3 5 0 94 0 1 1
-17.3 5.4 0 67 0 1 1
-17.3 5.8 0 85 0 1 1
-17.3 6.2 0 84 0 1 1
-17.2 -10.2 0 77 0 1 1
-17 -10.6 0 81 0 1 1
-16.9 -10.7 0 83 0 1 1
-16.9 -10.6 0 81 0 1 1
-16.9 -10.2 0 91 0 1 1
-16.9 -9.9 0 86 0 1 1
-16.9 -9.5 0 93 0 1 1
-16.9 -9.1 0 91 0 1 1
-16.9 -8.7 0 76 0 1 1
-16.9 -8.3 0 85 0 1 1
-16.9 -7.9 0 92 0 1 1
-16.9 -7.5 0 71 0 1 1
-16.9 -7.1 0 77 0 1 1
-16.9 1.1 0 70 0 1 1
-16.9 1.5 0 81 0 1 1
-16.9 1.9 0 85 0 1 1
-16.9 2.3 0 87 0 1 1
-16.9 2.7 0 69 0 1 1
-16.9 3.1 0 86 0 1 1
-16.9 3.5 0 71 0 1 1
-16.9 3.9 0 68 0 1 1
-16.9 4.3 0 69 0 1 1
-16.9 4.7 0 67 0 1 1
-16.9 5 0 50 0 1 1
-16.9 5.4 0 70 0 1 1
-16.9 5.8 0 81 0 1 1
-16.7 -11.2 0 78 0 1 1
-16.7 -11 0 85 0 1 1
-16.5 -11.4 0 83 0 1 1
-16.5 -11 0 94 0 1 1
-16.5 -10.6 0 77 0 1 1
-16.5 -10.2 0 80 0 1 1
-16.5 -9.9 0 95 0 1 1
-16.5 -9.5 0 87 0 1 1
-16.5 -9.1 0 87 0 1 1
-16.5 -8.7 0 85 0 1 1
-16.5 -8.3 0 88 0 1 1
-16.5 -7.9 0 85 0 1 1
-16.5 -7.5 0 88 0 1 1
-16.5 -7.1 0 85 0 1 1
-16.5 -6.7 0 79 0 1 1
-16.5 1.1 0 69 0 1 1
-16.5 1.5 0 66 0 1 1
-16.5 1.9 0 35 0 1 1
-16.5 2.3 0 82 0 1 1
-16.5 2.7 0 77 0 1 1
-16.5 3.1 0 77 0 1 1
-16.5 3.5 0 79 0 1 1
-16.5 3.9 0 75 0 1 1
-16.5 4.3 0 78 0 1 1
-16.5 4.7 0 76 0 1 1
-16.5 5 0 82 0 1 1
-16.5 5.4 0 45 0 1 1
-16.5 5.8 0 74 0 1 1
-16.1 -11 0 81 0 1 1
-16.1 -10.6 0 87 0 1 1
-16.1 -10.2 0 88 0 1 1
-16.1 -9.9 0 87 0 1 1
-16.1 -9.5 0 85 0 1 1
-16.1 -9.1 0 89 0 1 1
-16.1 -8.7 0 75 0 1 1
-16.1 -8.3 0 71 0 1 1
-16.1 -7.9 0 85 0 1 1
-16.1 -7.5 0 80 0 1 1
-16.1 -7.1 0 83 0 1 1
-16.1 -6.7 0 93 0 1 1
-16.1 1.1 0 83 0 1 1
-16.1 1.5 0 81 0 1 1
-16.1 1.9 0 83 0 1 1
-16.1 2.3 0 53 0 1 1
-16.1 2.7 0 63 0 1 1
-16.1 3.1 0 85 0 1 1
-16.1 3.5 0 78 0 1 1
-16.1 3.9 0 88 0 1 1
-16.1 4.3 0 83 0 1 1
-16.1 4.7 0 64 0 1 1
-16.1 5 0 74 0 1 1
-16.1 5.4 0 58 0 1 1
-16.1 5.8 0 51 0 1 1
-15.7 -10.6 0 78 0 1 1
-15.7 -10.2 0 91 0 1 1
-15.7 -9.9 0 87 0 1 1
-15.7 -9.5 0 92 0 1 1
-15.7 -9.1 0 94 0 1 1
-15.7 -8.7 0 77 0 1 1
-15.7 -8.3 0 83 0 1 1
-15.7 -7.9 0 85 0 1 1
-15.7 -7.5 0 80 0 1 1
-15.7 -7.1 0 66 0 1 1
-15.7 -6.7 0 80 0 1 1
-15.7 -6.3 0 76 0 1 1
-15.7 1.1 0 87 0 1 1
-15.7 1.5 0 73 0 1 1
-15.7 1.9 0 67 0 1 1
-15.7 2.3 0 78 0 1 1
-15.7 2.7 0 72 0 1 1
-15.7 3.1 0 76 0 1 1
-15.7 3.5 0 82 0 1 1
-15.7 3.9 0 75 0 1 1
-15.7 4.3 0 86 0 1 1
-15.7 4.7 0 81 0 1 1
-15.7 5 0 76 0 1 1
-15.7 5.4 0 65 0 1 1
-15.3 -10.2 0 78 0 1 1
-15.3 -9.9 0 94 0 1 1
-15.3 -9.5 0 90 0 1 1
-15.3 -9.1 0 98 0 1 1
-15.3 -8.7 0 86 0 1 1
-15.3 -8.3 0 80 0 1 1
-15.3 -7.9 0 82 0 1 1
-15.3 -7.5 0 81 0 1 1
-15.3 -7.1 0 79 0 1 1
-15.3 -6.7 0 78 0 1 1
-15.3 -6.3 0 95 0 1 1
-15.3 -1.4 2 78 0 1 3
-15.3 1.1 0 78 0 1 1
-15.3 1.5 0 74 0 1 1
-15.3 1.9 0 70 0 1 1
-15.3 2.3 0 74 0 1 1
-15.3 2.7 0 81 0 1 1
-15.3 3.1 0 82 0 1 1
-15.3 3.5 0 81 0 1 1
-15.3 3.9 0 87 0 1 1
-15.3 4.3 0 80 0 1 1
-15.3 4.7 0 83 0 1 1
-15.3 5 0 68 0 1 1
-15.3 5.4 0 70 0 1 1
-15.1 -1.8 2 92 0 1 3
-15 -9.5 0 90 0 1 1
-15 -9.1 0 92 0 1 1
-15 -8.7 0 64 0 1 1
-15 -8.3 0 95 0 1 1
-15 -7.9 0 90 0 1 1
-15 -7.5 0 69 0 1 1
-15 -7.1 0 85 0 1 1
-15 -6.7 0 84 0 1 1
-15 -6.3 0 81 0 1 1
-15 -5.9 0 85 0 1 1
-15 -1.2 1.9 89 0 1 3
-15 -0.8 1.9 70 0 1 3
-15 -0.5 1.9 73 0 1 3
-15 1.1 0 91 0 1 1
-15 1.5 0 62 0 1 1
-15 1.9 0 27 0 1 1
-15 2.3 0 50 0 1 1
-15 2.7 0 80 0 1 1
-15 3.1 0 89 0 1 1
-15 3.5 0 88 0 1 1
-15 3.9 0 86 0 1 1
-15 4.3 0 83 0 1 1
-15 4.7 0 87 0 1 1
-15 5 0 85 0 1 1
-15 5.4 0 71 0 1 1
-14.9 -1.6 2 88 0 1 3
-14.8 -0.9 1.9 104 0 1 3
-14.8 -0.4 1.7 93 0 1 3
-14.7 -5.4 1.5 70 0 1 3
-14.7 -4.1 2.4 90 0 1 3
-14.7 -1.6 2.1 74 0 1 3
-14.7 -1.3 1.9 61 0 1 3
-14.6 -9.1 0 107 0 1 1
-14.6 -8.7 0 86 0 1 1
-14.6 -8.3 0 88 0 1 1
-14.6 -7.9 0 83 0 1 1
-14.6 -7.5 0 92 0 1 1
-14.6 -7.1 0 91 0 1 1
-14.6 -6.7 0 69 0 1 1
-14.6 -6.3 0 91 0 1 1
-14.6 -5.9 0 81 0 1 1
-14.6 -4.4 2.3 69 0 1 3
-14.6 -0.8 1.7 106 0 1 3
-14.6 1.1 0 89 0 1 1
-14.6 1.5 0 117 0 1 1
-14.6 1.9 0 94 0 1 1
-14.6 2.3 0 63 0 1 1
-14.6 2.7 0 53 0 1 1
-14.6 3.1 0 84 0 1 1
-14.6 3.5 0 79 0 1 1
-14.6 3.9 0 82 0 1 1
-14.6 4.3 0 91 0 1 1
-14.6 4.7 0 87 0 1 1
-14.6 5 0 83 0 1 1
-14.6 5.9 1.1 66 0 1 3
-14.5 -5.6 1.1 68 0 1 3
-14.5 -1.4 1.9 99 0 1 3
-14.5 -1.1 1.7 114 0 1 3
-14.4 -1.7 1.9 105 0 1 3
-14.4 -0.4 1.5 92 0 1 3
-14.4 5.7 1.2 65 0 1 3
-14.4 6.1 1.2 72 0 1 3
-14.4 6.3 1.2 66 0 1 3
-14.4 7.2 1.2 88 0 1 3
-14.3 -5.3 1.5 76 0 1 3
-14.3 -4 2.4 83 0 1 3
-14.3 -1 1.6 98 0 1 3
-14.3 6.4 1.3 79 0 1 3
-14.3 6.5 1.3 70 0 1 3
-14.2 -8.7 0 97 0 1 1
-14.2 -8.3 0 76 0 1 1
-14.2 -7.9 0 90 0 1 1
-14.2 -7.5 0 83 0 1 1
-14.2 -7.1 0 91 0 1 1
-14.2 -6.7 0 73 0 1 1
-14.2 -6.3 0 90 0 1 1
-14.2 -5.9 0 79 0 1 1
-14.2 -4.4 2.2 89 0 1 3
-14.2 -1.3 1.7 89 0 1 3
-14.2 -0.7 1.5 104 0 1 3
-14.2 1.1 0 87 0 1 1
-14.2 1.5 0 85 0 1 1
-14.2 1.9 0 92 0 1 1
-14.2 2.3 0 60 0 1 1
-14.2 2.7 0 75 0 1 1
-14.2 3.1 0 77 0 1 1
-14.2 3.5 0 90 0 1 1
-14.2 3.9 0 63 0 1 1
-14.2 4.3 0 51 0 1 1
-14.2 4.7 0 85 0 1 1
-14.2 5 0 86 0 1 1
-14.2 5.4 0.7 59 0 1 3
-14.2 5.5 1.1 59 0 1 3
-14.1 -5 1.8 79 0 1 3
-14.1 -0.3 1.5 96 0 1 3
-14.1 0 1.4 78 0 1 3
-14.1 5.1 0.3 35 0 1 3
-14.1 5.1 0.6 65 0 1 3
-14.1 5.4 0.9 37 0 1 3
-14.1 5.4 1 47 0 1 3
-14 -4 2.3 94 0 1 3
-14 5 0.5 66 0 1 3
-14 5.3 0.8 54 0 1 3
-14 5.5 1.2 72 0 1 3
-14 6.4 1.3 84 0 1 3
-14 6.6 1.3 73 0 1 3
-13.9 -1.3 1.6 98 0 1 3
-13.9 -0.6 1.4 92 0 1 3
-13.9 5.1 0 43 0 1 3
-13.9 5.1 0.7 68 0 1 3
-13.9 5.4 1 34 0 1 3
-13.9 5.4 1.1 62 0 1 3
-13.9 6.1 1.3 72 0 1 3
-13.9 6.3 1.3 95 0 1 3
-13.9 6.5 1.4 85 0 1 3
-13.8 -8.3 0 69 0 1 1
-13.8 -7.9 0 78 0 1 1
-13.8 -7.5 0 97 0 1 1
-13.8 -7.1 0 92 0 1 1
-13.8 -6.7 0 96 0 1 1
-13.8 -6.3 0 69 0 1 1
-13.8 -5.9 0 78 0 1 1
-13.8 -5.5 0 90 0 1 1
-13.8 0.1 1.3 89 0 1 3
-13.8 1.1 0 93 0 1 1
-13.8 1.5 0 90 0 1 1
-13.8 1.9 0 95 0 1 1
-13.8 2.3 0 58 0 1 1
-13.8 2.7 0 97 0 1 1
-13.8 3.1 0 86 0 1 1
-13.8 3.5 0 88 0 1 1
-13.8 3.9 0 73 0 1 1
-13.8 4.3 0 76 0 1 1
-13.8 4.7 0 73 0 1 1
-13.8 5 0 87 0 1 1
-13.8 5 0.5 41 0 1 3
-13.8 5.1 0.2 37 0 1 3
-13.8 6.8 1.2 87 0 1 3
-13.7 -0.2 1.4 87 0 1 3
-13.7 5.1 0.6 81 0 1 3
-13.7 5.2 0.7 84 0 1 3
-13.7 5.6 1.2 81 0 1 3
-13.7 5.8 1.2 87 0 1 3
-13.6 0.3 1.2 88 0 1 3
-13.6 5.1 0.4 88 0 1 3
-13.6 5.3 0.8 44 0 1 3
-13.6 5.3 0.9 53 0 1 3
-13.6 5.4 1 77 0 1 3
-13.6 5.9 1.3 68 0 1 3
-13.6 6.2 1.3 88 0 1 3
-13.6 6.5 1.3 103 0 1 3
-13.5 5.1 0 49 0 1 3
-13.5 5.2 0.6 77 0 1 3
-13.5 6 1.2 85 0 1 3
-13.5 6.4 1.2 97 0 1 3
-13.5 6.7 1.2 96 0 1 3
-13.4 -7.9 0 94 0 1 1
-13.4 -7.5 0 87 0 1 1
-13.4 -7.1 0 81 0 1 1
-13.4 -6.7 0 86 0 1 1
-13.4 -6.3 0 99 0 1 1
-13.4 -5.9 0 90 0 1 1
-13.4 -5.5 0 72 0 1 1
-13.4 0.7 0.6 68 0 1 3
-13.4 0.8 0.1 82 0 1 3
-13.4 1.1 0 81 0 1 1
-13.4 1.5 0 73 0 1 1
-13.4 1.9 0 96 0 1 1
-13.4 2.3 0 88 0 1 1
-13.4 2.7 0 86 0 1 1
-13.4 3.1 0 63 0 1 1
-13.4 3.5 0 60 0 1 1
-13.4 3.9 0 89 0 1 1
-13.4 4.3 0 86 0 1 1
-13.4 4.7 0 70 0 1 1
-13.4 5 0 84 0 1 1
-13.4 5.2 0 74 0 1 3
-13.4 5.3 0.4 96 0 1 3
-13.4 5.5 1 100 0 1 3
-13.4 5.7 1.1 100 0 1 3
-13.4 5.9 1.2 85 0 1 3
-13.4 6.2 1.3 96 0 1 3
-13.3 -3.1 2.4 101 0 1 3
-13.3 0.5 1 89 0 1 3
-13.2 -8.2 0.1 87 0 1 5
-13.2 -2.5 2.4 75 0 1 3
-13.2 -0.4 1.4 97 0 1 3
-13.2 0.1 1.3 106 0 1 3
-13.2 5.3 0.6 68 0 1 3
-13.2 5.3 0.8 78 0 1 3
-13.2 5.4 0.3 128 0 1 3
-13.2 5.5 0.9 102 0 1 3
-13.2 6 1.2 95 0 1 3
-13.1 -3.5 2.4 66 0 1 3
-13.1 -2.2 2.3 86 0 1 3
-13.1 -1.9 2.1 98 0 1 3
-13.1 0.8 0.5 66 0 1 3
-13.1 5.4 0.5 103 0 1 3
-13.1 5.6 0.1 80 0 1 3
-13.1 5.8 1 98 0 1 3
-13.1 6.4 1.2 105 0 1 3
-13 -7.5 0 90 0 1 1
-13 -7.1 0 88 0 1 1
-13 -6.7 0 92 0 1 1
-13 -6.3 0 98 0 1 1
-13 -5.9 0 83 0 1 1
-13 -5.5 0 99 0 1 1
-13 -3.1 2.3 87 0 1 3
-13 -0.8 1.5 92 0 1 3
-13 0.5 0.8 93 0 1 3
-13 0.8 0.1 81 0 1 3
-13 1.1 0 89 0 1 1
-13 1.5 0 57 0 1 1
-13 1.9 0 77 0 1 1
-13 2.3 0 70 0 1 1
-13 2.7 0 89 0 1 1
-13 3.1 0 67 0 1 1
-13 3.5 0 68 0 1 1
-13 3.9 0 87 0 1 1
-13 4.3 0 91 0 1 1
-13 4.7 0 57 0 1 1
-13 5 0 73 0 1 1
-13 5.4 0 85 0 1 1
-13 5.5 0.7 93 0 1 3
-13 5.6 0.2 67 0 1 3
-13 6.2 1.2 114 0 1 3
-12.9 -5.1 0.1 72 0 1 3
-12.9 -2.7 2.4 92 0 1 3
-12.9 -2.4 2.3 83 0 1 3
-12.9 -0.5 1.4 98 0 1 3
-12.9 0 1.2 105 0 1 3
-12.9 0.3 1.1 85 0 1 3
-12.9 5.6 0.4 81 0 1 3
-12.9 5.7 0.1 65 0 1 3
-12.9 5.7 0.8 102 0 1 3
-12.9 6.2 0 72 0 1 3
-12.9 6.5 1.1 112 0 1 3
-12.8 -3.1 2.2 116 0 1 3
-12.8 -2.1 2.2 104 0 1 3
-12.8 -1.7 2 87 0 1 3
-12.8 -1.4 1.7 92 0 1 3
-12.8 0.6 0.4 100 0 1 3
-12.8 5.7 0.4 111 0 1 3
-12.8 5.9 0.2 96 0 1 3
-12.8 6 1 110 0 1 3
-12.8 6.3 0.1 71 0 1 3
-12.8 6.4 -0.1 73 0 1 3
-12.8 6.4 1 117 0 1 3
-12.7 -8.3 0.3 84 0 1 5
-12.7 -7.7 0.1 94 0 1 5
-12.7 -7 0 70 0 1 5
-12.7 -3.5 2.3 99 0 1 3
-12.7 -0.9 1.5 82 0 1 3
-12.7 0.4 0.8 91 0 1 3
-12.7 5.8 0.6 98 0 1 3
-12.7 5.9 0.8 119 0 1 3
-12.7 6.1 0.3 119 0 1 3
-12.7 6.1 0.7 148 0 1 3
-12.7 6.3 0.9 126 0 1 3
-12.6 -7.1 0 79 0 1 1
-12.6 -6.7 0 98 0 1 1
-12.6 -6.3 0 49 0 1 1
-12.6 -5.9 0 81 0 1 1
-12.6 -5.5 0 77 0 1 1
-12.6 -5.1 0 81 0 1 1
-12.6 -4.1 2.1 79 0 1 3
-12.6 -3.8 2.2 91 0 1 3
-12.6 -2.6 2.2 121 0 1 3
-12.6 -2.3 2.2 94 0 1 3
-12.6 -0.3 1.3 102 0 1 3
-12.6 0.1 1.1 108 0 1 3
-12.6 0.5 0.2 105 0 1 3
-12.6 0.7 0 94 0 1 1
-12.6 1.1 0 84 0 1 1
-12.6 1.5 0 93 0 1 1
-12.6 1.9 0 80 0 1 1
-12.6 2.3 0 81 0 1 1
-12.6 2.7 0 73 0 1 1
-12.6 3.1 0 84 0 1 1
-12.6 3.5 0 76 0 1 1
-12.6 3.9 0 74 0 1 1
-12.6 4.3 0 54 0 1 1
-12.6 4.7 0 89 0 1 1
-12.6 5 0 90 0 1 1
-12.6 5.4 0 89 0 1 1
-12.6 5.8 0 76 0 1 1
-12.6 6.1 0.5 120 0 1 3
-12.6 6.1 0.6 120 0 1 3
-12.6 6.2 0 74 0 1 1
-12.5 -4.6 1.6 90 0 1 3
-12.5 -3.3 2.1 110 0 1 3
-12.5 -2 2 125 0 1 3
-12.5 -1.8 1.9 105 0 1 3
-12.5 -1.5 1.7 104 0 1 3
-12.5 -1.2 1.5 104 0 1 3
-12.5 0.1 0.9 112 0 1 3
-12.5 0.3 0.5 104 0 1 3
-12.5 6.3 0.3 84 0 1 3
-12.5 6.3 0.5 141 0 1 3
-12.4 -5 0 83 0 1 3
-12.4 -3.8 2.1 162 0 1 3
-12.4 -3 2 102 0 1 3
-12.3 -4.7 1.3 84 0 1 3
-12.3 -2.6 2 103 0 1 3
-12.3 -2.2 1.9 115 0 1 3
-12.3 -1.9 1.8 107 0 1 3
-12.3 -1.5 1.5 115 0 1 3
-12.3 -0.6 1.2 115 0 1 3
-12.3 -0.3 1.1 112 0 1 3
-12.3 0 0.7 98 0 1 3
-12.3 0.2 0.2 99 0 1 3
-12.2 -7.1 0 91 0 1 1
-12.2 -6.7 0 66 0 1 1
-12.2 -6.3 0 94 0 1 1
-12.2 -5.9 0 101 0 1 1
-12.2 -5.5 0 77 0 1 1
-12.2 -5.1 0 99 0 1 1
-12.2 -4.7 1.1 88 0 1 3
-12.2 -3.5 2.1 125 0 1 3
-12.2 -1 1.3 113 0 1 3
-12.2 -0.1 0.5 106 0 1 3
-12.2 0.3 0 92 0 1 1
-12.2 0.7 0 95 0 1 1
-12.2 1.1 0 87 0 1 1
-12.2 1.5 0 91 0 1 1
-12.2 1.9 0 81 0 1 1
-12.2 2.3 0 70 0 1 1
-12.2 2.7 0 55 0 1 1
-12.2 3.1 0 86 0 1 1
-12.2 3.5 0 84 0 1 1
-12.2 3.9 0 87 0 1 1
-12.2 4.3 0 89 0 1 1
-12.2 4.7 0 83 0 1 1
-12.2 5 0 77 0 1 1
-12.2 5.4 0 88 0 1 1
-12.2 5.8 0 98 0 1 1
-12.2 6.2 0 87 0 1 1
-12.1 -8.2 0.4 82 0 1 5
-12.1 -4.6 1.4 76 0 1 3
-12.1 -0.6 1.1 121 0 1 3
-12.1 -0.3 0.8 116 0 1 3
-12 -3.2 2 101 0 1 3
-12 -2.1 1.6 115 0 1 3
-12 -1.8 1.5 120 0 1 3
-12 -1.3 1.3 116 0 1 3
-12 -0.6 0.9 103 0 1 3
-12 -0.2 0.2 101 0 1 3
-11.9 -8.7 0.7 79 0 1 5
-11.9 -7 0.1 92 0 1 5
-11.9 -4.7 0.9 58 0 1 3
-11.9 -4.2 1.9 77 0 1 3
-11.9 -3.9 2.1 84 0 1 3
-11.9 -3 1.9 116 0 1 3
-11.9 -2.6 1.7 123 0 1 3
-11.9 -0.9 1 117 0 1 3
-11.9 -0.4 0.6 109 0 1 3
-11.8 -7.1 0 98 0 1 1
-11.8 -6.7 0 98 0 1 1
-11.8 -6.3 0 91 0 1 1
-11.8 -5.9 0 86 0 1 1
-11.8 -5.5 0 75 0 1 1
-11.8 -5.1 0 94 0 1 1
-11.8 -4.8 0 88 0 1 1
-11.8 -4.4 1.5 83 0 1 3
-11.8 -2 1.3 129 0 1 3
-11.8 -1.6 1.3 114 0 1 3
-11.8 -1.3 1.1 131 0 1 3
-11.8 -0.1 0 83 0 1 1
-11.8 0.3 0 89 0 1 1
-11.8 0.7 0 99 0 1 1
-11.8 1.1 0 89 0 1 1
-11.8 1.5 0 81 0 1 1
-11.8 1.9 0 80 0 1 1
-11.8 2.3 0 83 0 1 1
-11.8 2.7 0 45 0 1 1
-11.8 3.1 0 88 0 1 1
-11.8 3.5 0 84 0 1 1
-11.8 3.9 0 81 0 1 1
-11.8 4.3 0 91 0 1 1
-11.8 4.7 0 84 0 1 1
-11.8 5 0 70 0 1 1
-11.8 5.4 0 92 0 1 1
-11.8 5.8 0 92 0 1 1
-11.7 -9.4 1 69 0 1 5
-11.7 -4.5 1.2 72 0 1 3
-11.7 -3.5 2 164 0 1 3
-11.7 -3.2 1.8 114 0 1 3
-11.7 -2.5 1.4 116 0 1 3
-11.7 -1.9 1 122 0 1 3
-11.7 -1.6 1 137 0 1 3
-11.7 -1 0.8 127 0 1 3
-11.6 -8.4 0.5 85 0 1 5
-11.6 -8 0.4 81 0 1 5
-11.6 -4.6 0.6 53 0 1 3
-11.6 -4.5 0.2 81 0 1 3
-11.6 -4.3 1.2 95 0 1 3
-11.6 -4 1.9 98 0 1 3
-11.6 -3 1.5 120 0 1 3
-11.6 -2.3 1.1 125 0 1 3
-11.6 -1.5 0.7 115 0 1 3
-11.6 -0.7 0.5 85 0 1 3
-11.6 -0.5 0.2 93 0 1 3
-11.5 -9.1 1 73 0 1 5
-11.5 -4.5 0.9 83 0 1 3
-11.5 -4.1 1.6 111 0 1 3
-11.5 -3.8 1.8 110 0 1 3
-11.5 -3.4 1.6 125 0 1 3
-11.5 -2.6 1.2 128 0 1 3
-11.5 -1.2 0.4 138 0 1 3
-11.5 -0.9 0.5 140 0 1 3
-11.4 -7.6 0.3 88 0 1 5
-11.4 -7.1 0 91 0 1 1
-11.4 -6.7 0 103 0 1 1
-11.4 -6.3 0 98 0 1 1
-11.4 -5.9 0 84 0 1 1
-11.4 -5.5 0 86 0 1 1
-11.4 -5.1 0 90 0 1 1
-11.4 -4.8 0 98 0 1 1
-11.4 -4.2 0.9 92 0 1 3
-11.4 -4 1.2 97 0 1 3
-11.4 -3.9 1.5 110 0 1 3
-11.4 -3.2 1.3 126 0 1 3
-11.4 -2.9 1.3 134 0 1 3
-11.4 -2 0.7 111 0 1 3
-11.4 -1.9 0.5 115 0 1 3
-11.4 -1.4 0.3 140 0 1 3
-11.4 -0.9 0.1 141 0 1 3
-11.4 -0.4 0 71 0 1 1
-11.4 -0.1 0 70 0 1 1
-11.4 0.3 0 34 0 1 1
-11.4 0.7 0 86 0 1 1
-11.4 1.1 0 39 0 1 1
-11.4 1.5 0 83 0 1 1
-11.4 1.9 0 92 0 1 1
-11.4 2.7 0 77 0 1 1
-11.4 3.1 0 85 0 1 1
-11.4 3.5 0 85 0 1 1
-11.4 3.9 0 79 0 1 1
-11.4 4.3 0 94 0 1 1
-11.4 4.7 0 92 0 1 1
-11.4 5 0 92 0 1 1
-11.4 5.4 0 85 0 1 1
-11.4 5.8 0 84 0 1 1
-11.3 -4.4 0.6 81 0 1 3
-11.3 -3.9 0.9 82 0 1 3
-11.3 -3.7 1.3 116 0 1 3
-11.3 -2.6 0.9 131 0 1 3
-11.3 -2.4 0.8 72 0 1 3
-11.3 -1.7 0.3 120 0 1 3
-11.3 -1.4 0 130 0 1 3
-11.2 -4.2 0.6 101 0 1 3
-11.2 -3.4 1.2 111 0 1 3
-11.1 -4.4 0.3 76 0 1 3
-11.1 -4.2 0 78 0 1 3
-11.1 -3.6 0.9 122 0 1 3
-11.1 -3.4 1 123 0 1 3
-11.1 -3.1 1 132 0 1 3
-11.1 -1.8 0.1 135 0 1 3
-11 -9.1 1.1 88 0 1 5
-11 -7.1 0 87 0 1 1
-11 -6.7 0 89 0 1 1
-11 -6.3 0 95 0 1 1
-11 -5.9 0 76 0 1 1
-11 -5.5 0 84 0 1 1
-11 -5.1 0 88 0 1 1
-11 -4.8 0 99 0 1 1
-11 -4.4 0 96 0 1 1
-11 -3.8 0.7 113 0 1 3
-11 -3.3 0.7 118 0 1 3
-11 -2.5 0.5 130 0 1 3
-11 -2.1 0.4 120 0 1 3
-11 -1.6 0 82 0 1 1
-11 -1.2 0 81 0 1 1
-11 -0.8 0 69 0 1 1
-11 -0.4 0 80 0 1 1
-11 -0.1 0 28 0 1 1
-11 0.3 0 37 0 1 1
-11 0.7 0 41 0 1 1
-11 1.1 0 86 0 1 1
-11 1.5 0 75 0 1 1
-11 1.9 0 82 0 1 1
-11 2.7 0 85 0 1 1
-11 3.1 0 89 0 1 1
-11 3.5 0 88 0 1 1
-11 3.9 0 81 0 1 1
-11 4.3 0 91 0 1 1
-11 4.7 0 94 0 1 1
-11 5 0 71 0 1 1
-11 5.4 0 91 0 1 1
-10.9 -9.5 1.4 68 0 1 5
-10.9 -4 0.4 109 0 1 3
-10.9 -3.9 0 87 0 1 3
-10.9 -2.8 0.5 130 0 1 3
-10.8 -2.6 0.2 144 0 1 3
-10.8 -2.4 0.1 121 0 1 3
-10.8 -1.9 -0.1 61 0 1 3
-10.7 -3.6 0.3 84 0 1 3
-10.7 -3 0.2 145 0 1 3
-10.6 -8.7 0.8 80 0 1 5
-10.6 -7.1 0 94 0 1 1
-10.6 -6.7 0 67 0 1 1
-10.6 -6.3 0 130 0 1 1
-10.6 -5.5 0 91 0 1 1
-10.6 -5.1 0 76 0 1 1
-10.6 -4.8 0 38 0 1 1
-10.6 -4.4 0 86 0 1 1
-10.6 -4 0 101 0 1 1
-10.6 -3.6 0 82 0 1 1
-10.6 -2.8 0 98 0 1 1
-10.6 -2.4 0 91 0 1 1
-10.6 -2 0 91 0 1 1
-10.6 -1.6 0 38 0 1 1
-10.6 -1.2 0 79 0 1 1
-10.6 -0.8 0 84 0 1 1
-10.6 -0.4 0 83 0 1 1
-10.6 -0.1 0 98 0 1 1
-10.6 0.3 0 92 0 1 1
-10.6 0.7 0 74 0 1 1
-10.6 1.1 0 75 0 1 1
-10.6 1.5 0 73 0 1 1
-10.6 2.7 0 68 0 1 1
-10.6 3.1 0 85 0 1 1
-10.6 3.5 0 92 0 1 1
-10.6 3.9 0 88 0 1 1
-10.6 4.3 0 87 0 1 1
-10.6 4.7 0 79 0 1 1
-10.6 5 0 88 0 1 1
-10.5 -9 1 81 0 1 5
-10.5 -8.1 0.6 86 0 1 5
-10.5 -7.4 0.2 93 0 1 5
-10.4 -9.7 1.6 67 0 1 5
-10.3 -9.5 1.5 73 0 1 5
-10.3 -9.2 1.2 70 0 1 5
-10.2 -8.7 0.8 77 0 1 5
-10.2 -7.1 0 100 0 1 1
-10.2 -6.9 0.1 79 0 1 5
-10.2 -6.7 0 100 0 1 1
-10.2 -5.9 0 130 0 1 1
-10.2 -5.1 0 95 0 1 1
-10.2 -4.8 0 50 0 1 1
-10.2 -4.4 0 73 0 1 1
-10.2 -4 0 104 0 1 1
-10.2 -3.6 0 84 0 1 1
-10.2 -3.2 0 94 0 1 1
-10.2 -2.8 0 79 0 1 1
-10.2 -2.4 0 82 0 1 1
-10.2 -2 0 39 0 1 1
-10.2 -1.6 0 40 0 1 1
-10.2 -1.2 0 59 0 1 1
-10.2 -0.8 0 77 0 1 1
-10.2 -0.4 0 88 0 1 1
-10.2 -0.1 0 92 0 1 1
-10.2 0.3 0 95 0 1 1
-10.2 0.7 0 94 0 1 1
-10.2 1.1 0 96 0 1 1
-10.2 1.5 0 96 0 1 1
-10.2 2.7 0 78 0 1 1
-10.2 3.1 0 81 0 1 1
-10.2 3.5 0 102 0 1 1
-10.2 3.9 0 81 0 1 1
-10.2 4.3 0 49 0 1 1
-10.2 4.7 0 93 0 1 1
-10.2 5 0 93 0 1 1
-10.1 1.9 0.2 53 0 1 2
-10.1 2.3 0.2 49 0 1 2
-10.1 2.4 0.1 93 0 1 2
-10 -8.5 0.8 84 0 1 5
-10 1.7 0.1 71 0 1 2
-10 1.8 0.2 61 0 1 2
-10 2 0.2 88 0 1 2
-10 2.1 0.3 78 0 1 2
-10 2.3 0.2 92 0 1 2
-10 2.4 0 82 0 1 2
-9.9 -7.1 0 50 0 1 1
-9.9 -6.7 0 91 0 1 1
-9.9 -6.3 0 114 0 1 1
-9.9 -4.8 0 92 0 1 1
-9.9 -4.4 0 103 0 1 1
-9.9 -4 0 89 0 1 1
-9.9 -3.6 0 106 0 1 1
-9.9 -3.2 0 103 0 1 1
-9.9 -2.8 0 94 0 1 1
-9.9 -2.4 0 89 0 1 1
-9.9 -2 0 69 0 1 1
-9.9 -1.6 0 79 0 1 1
-9.9 -1.2 0 83 0 1 1
-9.9 -0.8 0 70 0 1 1
-9.9 -0.4 0 91 0 1 1
-9.9 -0.1 0 78 0 1 1
-9.9 0.3 0 64 0 1 1
-9.9 0.7 0 88 0 1 1
-9.9 1.1 0 94 0 1 1
-9.9 1.5 0 87 0 1 1
-9.9 1.8 0 52 0 1 2
-9.9 1.8 0.1 67 0 1 2
-9.9 2.2 0.2 94 0 1 2
-9.9 2.3 0 81 0 1 1
-9.9 2.4 0.1 72 0 1 2
-9.9 2.7 0 91 0 1 1
-9.9 3.1 0 93 0 1 1
-9.9 3.5 0 101 0 1 1
-9.9 3.9 0 94 0 1 1
-9.9 4.3 0 76 0 1 1
-9.9 4.7 0 100 0 1 1
-9.8 -9.7 1.8 74 0 1 5
-9.8 -8.9 1.1 72 0 1 5
-9.8 1.8 0 76 0 1 2
-9.8 1.8 0.2 149 0 1 2
-9.8 1.9 0.3 93 0 1 2
-9.8 2.1 -0.1 83 0 1 2
-9.8 2.2 0.2 98 0 1 2
-9.7 1.9 0 70 0 1 2
-9.7 1.9 0.1 109 0 1 2
-9.7 2 0.1 82 0 1 2
-9.7 2 0.2 108 0 1 2
-9.7 2.1 0.2 109 0 1 2
-9.7 2.2 -0.1 53 0 1 2
-9.7 2.3 0 71 0 1 2
-9.7 2.3 0.1 97 0 1 2
-9.7 2.3 0.2 109 0 1 2
-9.6 -9.5 1.7 69 0 1 5
-9.6 -9.2 1.5 85 0 1 5
-9.6 2.1 0.1 141 0 1 2
-9.6 2.2 0.1 144 0 1 2
-9.5 -9.7 1.9 75 0 1 5
-9.5 -8.4 0.8 90 0 1 5
-9.5 -7.1 0 99 0 1 1
-9.5 -6.7 0 99 0 1 1
-9.5 -6.3 0 78 0 1 1
-9.5 -4.4 0 83 0 1 1
-9.5 -4 0 50 0 1 1
-9.5 -3.6 0 88 0 1 1
-9.5 -3.2 0 79 0 1 1
-9.5 -2.8 0 90 0 1 1
-9.5 -2.4 0 85 0 1 1
-9.5 -2 0 90 0 1 1
-9.5 -1.6 0 110 0 1 1
-9.5 -1.2 0 98 0 1 1
-9.5 -0.8 0 71 0 1 1
-9.5 -0.4 0 83 0 1 1
-9.5 -0.1 0 95 0 1 1
-9.5 0.3 0 85 0 1 1
-9.5 0.7 0 75 0 1 1
-9.5 1.1 0 88 0 1 1
-9.5 1.5 0 84 0 1 1
-9.5 1.9 0 93 0 1 1
-9.5 2.3 0 71 0 1 1
-9.5 2.7 0 92 0 1 1
-9.5 3.1 0 108 0 1 1
-9.5 3.5 0 60 0 1 1
-9.5 3.9 0 83 0 1 1
-9.5 4.3 0 104 0 1 1
-9.5 4.7 0 101 0 1 1
-9.3 -8.6 1 78 0 1 5
-9.2 -9.5 1.8 83 0 1 5
-9.1 -7.1 0 83 0 1 1
-9.1 -6.7 0 60 0 1 1
-9.1 -6.3 0 88 0 1 1
-9.1 -5.9 0 91 0 1 1
-9.1 -4.4 0 99 0 1 1
-9.1 -4 0 100 0 1 1
-9.1 -3.6 0 104 0 1 1
-9.1 -3.2 0 97 0 1 1
-9.1 -2.8 0 113 0 1 1
-9.1 -2.4 0 91 0 1 1
-9.1 -2 0 95 0 1 1
-9.1 -1.6 0 92 0 1 1
-9.1 -1.2 0 86 0 1 1
-9.1 -0.8 0 49 0 1 1
-9.1 -0.4 0 79 0 1 1
-9.1 -0.1 0 87 0 1 1
-9.1 0.3 0 51 0 1 1
-9.1 0.7 0 95 0 1 1
-9.1 1.1 0 103 0 1 1
-9.1 1.5 0 94 0 1 1
-9.1 1.9 0 100 0 1 1
-9.1 2.3 0 89 0 1 1
-9.1 2.7 0 99 0 1 1
-9.1 3.1 0 96 0 1 1
-9.1 3.5 0 94 0 1 1
-9.1 3.9 0 93 0 1 1
-9.1 4.3 0 104 0 1 1
-9 -9.8 2 86 0 1 5
-9 -7.3 0.2 96 0 1 5
-8.9 -9.4 1.7 89 0 1 5
-8.9 -9 1.4 87 0 1 5
-8.9 -4.6 0.3 88 0 1 2
-8.8 -4.9 0.1 81 0 1 2
-8.8 -4.5 0.2 65 0 1 2
-8.7 -10.2 2.1 77 0 1 5
-8.7 -7.1 0 104 0 1 1
-8.7 -6.7 0 74 0 1 1
-8.7 -6.3 0 94 0 1 1
-8.7 -5.9 0 90 0 1 1
-8.7 -4.3 0.1 77 0 1 2
-8.7 -4 0 86 0 1 1
-8.7 -3.6 0 39 0 1 1
-8.7 -3.2 0 88 0 1 1
-8.7 -2.8 0 79 0 1 1
-8.7 -2.4 0 103 0 1 1
-8.7 -2 0 103 0 1 1
-8.7 -1.6 0 109 0 1 1
-8.7 -1.2 0 100 0 1 1
-8.7 -0.8 0 118 0 1 1
-8.7 -0.4 0 105 0 1 1
-8.7 -0.1 0 102 0 1 1
-8.7 0.3 0 93 0 1 1
-8.7 0.7 0 97 0 1 1
-8.7 1.1 0 84 0 1 1
-8.7 1.5 0 96 0 1 1
-8.7 1.9 0 102 0 1 1
-8.7 2.3 0 102 0 1 1
-8.7 2.7 0 71 0 1 1
-8.7 3.1 0 78 0 1 1
-8.7 3.5 0 71 0 1 1
-8.7 3.9 0 108 0 1 1
-8.7 4.3 0 93 0 1 1
-8.6 -7.9 0.5 98 0 1 5
-8.6 -7 0 88 0 1 5
-8.6 -4.2 0.1 116 0 1 2
-8.6 -4.1 0 125 0 1 2
-8.5 -9.8 2.1 96 0 1 5
-8.5 -9.2 1.7 97 0 1 5
-8.5 -8.6 1 89 0 1 5
-8.5 -5 0.3 102 0 1 2
-8.5 -4.8 0.1 45 0 1 2
-8.5 -4.8 0.4 77 0 1 2
-8.5 -4.5 0.4 90 0 1 2
-8.5 -4.3 0.3 72 0 1 2
-8.5 -4.2 0 93 0 1 2
-8.4 -5.5 0 63 0 1 2
-8.4 -5.4 0.2 98 0 1 2
-8.4 -5.1 0.4 103 0 1 2
-8.4 -4.7 0.3 108 0 1 2
-8.4 -4.5 0.3 115 0 1 2
-8.4 -4.2 0.3 85 0 1 2
-8.3 -7.1 0 72 0 1 1
-8.3 -6.7 0 78 0 1 1
-8.3 -6.3 0 102 0 1 1
-8.3 -5.9 0 111 0 1 1
-8.3 -5.5 0 27 0 1 1
-8.3 -4.8 0 103 0 1 1
-8.3 -4.7 0 92 0 1 2
-8.3 -4.6 0.2 86 0 1 2
-8.3 -4 0 41 0 1 1
-8.3 -3.6 0 48 0 1 1
-8.3 -3.2 0 28 0 1 1
-8.3 -2.8 0 97 0 1 1
-8.3 -2.4 0 98 0 1 1
-8.3 -2 0 104 0 1 1
-8.3 -1.6 0 113 0 1 1
-8.3 -1.2 0 90 0 1 1
-8.3 -0.8 0 100 0 1 1
-8.3 -0.4 0 94 0 1 1
-8.3 -0.1 0 112 0 1 1
-8.3 0.3 0 79 0 1 1
-8.3 0.7 0 98 0 1 1
-8.3 1.1 0 37 0 1 1
-8.3 1.5 0 92 0 1 1
-8.3 1.9 0 83 0 1 1
-8.3 2.3 0 109 0 1 1
-8.3 2.7 0 109 0 1 1
-8.3 3.1 0 92 0 1 1
-8.3 3.5 0 99 0 1 1
-8.3 3.9 0 104 0 1 1
-8.2 -5.4 -0.1 24 0 1 2
-8.2 -5.3 0.3 134 0 1 2
-8.2 -4.1 0.1 74 0 1 2
-8.2 -4.1 0.2 79 0 1 2
-8.2 -4 0 60 0 1 2
-8.1 -10.4 2.3 86 0 1 5
-8.1 -8.7 1.1 105 0 1 5
-8.1 -4.8 0 78 0 1 2
-8.1 -4.8 0.1 100 0 1 2
-8.1 -4.5 0.1 134 0 1 2
-8.1 -4.3 0.3 108 0 1 2
-8.1 -4.1 0.1 94 0 1 2
-8 -5.2 0 105 0 1 2
-8 -5 0.2 129 0 1 2
-8 -4.2 0 140 0 1 2
-7.9 -9.4 1.9 101 0 1 5
-7.9 -7.5 0.2 99 0 1 5
-7.9 -7.1 0 63 0 1 1
-7.9 -6.7 0 87 0 1 1
-7.9 -6.3 0 59 0 1 1
-7.9 -5.9 0 92 0 1 1
-7.9 -5.5 0 66 0 1 1
-7.9 -5.1 0 27 0 1 1
-7.9 -4.8 0 54 0 1 1
-7.9 -4.4 0 79 0 1 1
-7.9 -4 0 89 0 1 1
-7.9 -3.6 0 93 0 1 1
-7.9 -3.2 0 108 0 1 1
-7.9 -2.8 0 97 0 1 1
-7.9 -2.4 0 74 0 1 1
-7.9 -2 0 52 0 1 1
-7.9 -1.6 0 72 0 1 1
-7.9 -1.2 0 108 0 1 1
-7.9 -0.8 0 94 0 1 1
-7.9 -0.4 0 106 0 1 1
-7.9 -0.1 0 107 0 1 1
-7.9 0.3 0 56 0 1 1
-7.9 0.7 0 94 0 1 1
-7.9 1.1 0 95 0 1 1
-7.9 1.5 0 93 0 1 1
-7.9 1.9 0 66 0 1 1
-7.9 2.3 0 80 0 1 1
-7.9 2.7 0 86 0 1 1
-7.9 3.1 0 94 0 1 1
-7.9 3.5 0 89 0 1 1
-7.9 3.9 0 76 0 1 1
-7.8 -9.8 2.1 107 0 1 5
-7.8 -8 0.6 94 0 1 5
-7.6 -8.8 1.2 108 0 1 5
-7.5 -7.1 0 85 0 1 1
-7.5 -6.7 0 82 0 1 1
-7.5 -6.3 0 96 0 1 1
-7.5 -5.9 0 98 0 1 1
-7.5 -5.5 0 66 0 1 1
-7.5 -5.1 0 83 0 1 1
-7.5 -4.8 0 97 0 1 1
-7.5 -4.4 0 71 0 1 1
-7.5 -4 0 64 0 1 1
-7.5 -3.6 0 92 0 1 1
-7.5 -3.2 0 98 0 1 1
-7.5 -2.8 0 84 0 1 1
-7.5 -2.4 0 105 0 1 1
-7.5 -2 0 94 0 1 1
-7.5 -1.6 0 65 0 1 1
-7.5 -1.2 0 92 0 1 1
-7.5 -0.8 0 101 0 1 1
-7.5 -0.4 0 106 0 1 1
-7.5 -0.1 0 104 0 1 1
-7.5 0.3 0 100 0 1 1
-7.5 0.7 0 51 0 1 1
-7.5 1.1 0 85 0 1 1
-7.5 1.5 0 66 0 1 1
-7.5 1.9 0 96 0 1 1
-7.5 2.3 0 102 0 1 1
-7.5 2.7 0 88 0 1 1
-7.5 3.1 0 87 0 1 1
-7.5 3.5 0 98 0 1 1
-7.3 -9.4 1.7 111 0 1 5
-7.2 -10.3 2.3 108 0 1 5
-7.2 -10.1 2.2 113 0 1 5
-7.2 -7.9 0.3 95 0 1 5
-7.1 -7.1 0 104 0 1 1
-7.1 -6.7 0 95 0 1 1
-7.1 -6.3 0 103 0 1 1
-7.1 -5.9 0 89 0 1 1
-7.1 -5.5 0 94 0 1 1
-7.1 -5.1 0 106 0 1 1
-7.1 -4.8 0 76 0 1 1
-7.1 -4.4 0 63 0 1 1
-7.1 -4 0 88 0 1 1
-7.1 -3.6 0 98 0 1 1
-7.1 -3.2 0 106 0 1 1
-7.1 -2.8 0 102 0 1 1
-7.1 -2.4 0 98 0 1 1
-7.1 -2 0 70 0 1 1
-7.1 -1.6 0 43 0 1 1
-7.1 -1.2 0 93 0 1 1
-7.1 -0.8 0 119 0 1 1
-7.1 -0.4 0 81 0 1 1
-7.1 -0.1 0 70 0 1 1
-7.1 0.3 0 92 0 1 1
-7.1 0.7 0 110 0 1 1
-7.1 1.1 0 107 0 1 1
-7.1 1.5 0 70 0 1 1
-7.1 1.9 0 107 0 1 1
-7.1 2.3 0 102 0 1 1
-7.1 2.7 0 114 0 1 1
-7.1 3.1 0 59 0 1 1
-7.1 3.5 0 75 0 1 1
-7 -10.8 2.4 78 0 1 5
-6.9 -8.6 0.8 110 0 1 5
-6.7 -9.9 2 115 0 1 5
-6.7 -7.1 0 76 0 1 1
-6.7 -6.7 0 82 0 1 1
-6.7 -6.3 0 88 0 1 1
-6.7 -5.9 0 58 0 1 1
-6.7 -4.8 0 73 0 1 1
-6.7 -4.4 0 106 0 1 1
-6.7 -4 0 102 0 1 1
-6.7 -3.6 0 88 0 1 1
-6.7 -3.2 0 95 0 1 1
-6.7 -2.8 0 66 0 1 1
-6.7 -2.4 0 106 0 1 1
-6.7 -2 0 109 0 1 1
-6.7 -1.6 0 97 0 1 1
-6.7 -1.2 0 86 0 1 1
-6.7 -0.8 0 95 0 1 1
-6.7 -0.4 0 40 0 1 1
-6.7 -0.1 0 122 0 1 1
-6.7 0.3 0 80 0 1 1
-6.7 0.7 -0.1 70 0 1 1
-6.7 1.1 -0.1 102 0 1 1
-6.7 1.5 -0.1 110 0 1 1
-6.7 1.9 -0.1 116 0 1 1
-6.7 2.3 -0.1 102 0 1 1
-6.7 2.7 -0.1 124 0 1 1
-6.7 3.1 -0.1 66 0 1 1
-6.6 -10.8 2.4 110 0 1 5
-6.6 -7.5 0 89 0 1 5
-6.4 -9.3 1.4 119 0 1 5
-6.4 -8.5 0.6 111 0 1 5
-6.3 -11.4 2.5 88 0 1 5
-6.3 -10.4 2.2 113 0 1 5
-6.3 -7.5 0 101 0 1 1
-6.3 -7.1 0 99 0 1 1
-6.3 -6.7 0 97 0 1 1
-6.3 -6.3 0 86 0 1 1
-6.3 -5.9 0 93 0 1 1
-6.3 -4.4 0 101 0 1 1
-6.3 -4 0 64 0 1 1
-6.3 -3.6 0 96 0 1 1
-6.3 -3.2 0 100 0 1 1
-6.3 -2.8 0 99 0 1 1
-6.3 -2.4 0 82 0 1 1
-6.3 -2 0 103 0 1 1
-6.3 -1.6 0 119 0 1 1
-6.3 -1.2 0 101 0 1 1
-6.3 -0.8 0 116 0 1 1
-6.3 -0.4 0 112 0 1 1
-6.3 -0.1 0 121 0 1 1
-6.3 0.3 -0.1 117 0 1 1
-6.3 0.7 -0.3 106 0 1 1
-6.3 1.1 -0.4 92 0 1 1
-6.3 1.5 -0.4 82 0 1 1
-6.3 1.8 -0.4 135 0 1 1
-6.3 2.2 -0.4 125 0 1 1
-6.3 2.6 -0.4 124 0 1 1
-6.3 3 -0.4 125 0 1 1
-6.1 -8 0.2 103 0 1 5
-6 -11.2 2.4 103 0 1 5
-6 -4.5 0.2 100 0 1 2
-5.9 -7.9 0 87 0 1 1
-5.9 -7.5 0 110 0 1 1
-5.9 -7.1 0 76 0 1 1
-5.9 -6.7 0 104 0 1 1
-5.9 -6.3 0 102 0 1 1
-5.9 -5.9 0 96 0 1 1
-5.9 -5.5 0 89 0 1 1
-5.9 -4.4 0 103 0 1 1
-5.9 -4.2 0.1 89 0 1 2
-5.9 -4 0 83 0 1 1
-5.9 -3.6 0 99 0 1 1
-5.9 -3.2 0 106 0 1 1
-5.9 -2.8 0 106 0 1 1
-5.9 -2.4 0 84 0 1 1
-5.9 -2 0 103 0 1 1
-5.9 -1.6 0 59 0 1 1
-5.9 -1.2 0 84 0 1 1
-5.9 -0.8 0 102 0 1 1
-5.9 -0.4 0 66 0 1 1
-5.9 -0.1 -0.1 133 0 1 1
-5.9 0.3 -0.3 118 0 1 1
-5.9 0.6 -0.6 83 0 1 4
-5.9 1 -0.7 99 0 1 4
-5.9 1.4 -0.7 104 0 1 4
-5.9 1.8 -0.7 100 0 1 4
-5.9 2.2 -0.7 89 0 1 4
-5.9 2.6 -0.7 96 0 1 4
-5.9 3 -0.7 111 0 1 4
-5.8 -10.2 2 119 0 1 5
-5.7 -10.8 2.2 101 0 1 5
-5.7 -8.4 0.3 114 0 1 5
-5.7 -4.5 0.4 89 0 1 2
-5.6 -10.5 2.1 108 0 1 5
-5.6 -4.4 0.3 102 0 1 2
-5.5 -9.2 0.9 113 0 1 5
-5.5 -9 0.8 114 0 1 5
-5.5 -8.3 0 98 0 1 1
-5.5 -7.9 0 98 0 1 1
-5.5 -7.5 0 93 0 1 1
-5.5 -7.1 0 71 0 1 1
-5.5 -6.7 0 109 0 1 1
-5.5 -6.3 0 94 0 1 1
-5.5 -5.9 0 89 0 1 1
-5.5 -4 0 90 0 1 1
-5.5 -3.9 0.1 62 0 1 2
-5.5 -3.6 0 88 0 1 1
-5.5 -3.2 0 94 0 1 1
-5.5 -2.8 0 107 0 1 1
-5.5 -2.4 0 92 0 1 1
-5.5 -2 0 106 0 1 1
-5.5 -1.6 0 110 0 1 1
-5.5 -1.2 0 39 0 1 1
-5.5 -0.8 0 67 0 1 1
-5.5 -0.4 0 93 0 1 1
-5.5 -0.1 -0.1 91 0 1 1
-5.5 0.3 -0.4 108 0 1 1
-5.5 0.6 -0.7 93 0 1 4
-5.5 1 -0.9 94 0 1 4
-5.5 1.4 -0.9 89 0 1 4
-5.5 1.8 -0.9 45 0 1 4
-5.5 2.1 -0.9 86 0 1 4
-5.5 2.5 -0.9 64 0 1 4
-5.4 -8.9 0.7 122 0 1 5
-5.4 -4.1 0.2 53 0 1 2
-5.3 -10.2 1.8 93 0 1 5
-5.3 -9.7 1.3 110 0 1 5
-5.3 -4.6 0 97 0 1 2
-5.3 -4.4 0.4 72 0 1 2
-5.3 -3.9 0.1 92 0 1 2
-5.2 -9.7 1.3 74 0 1 5
-5.2 -9.3 1 120 0 1 5
-5.2 -4.7 0.2 42 0 1 2
-5.2 -4.5 0 70 0 1 2
-5.2 -4.1 0 102 0 1 2
-5.1 -9.9 1.4 119 0 1 5
-5.1 -9.5 1.1 109 0 1 5
-5.1 -8.3 0 78 0 1 1
-5.1 -7.9 0 106 0 1 1
-5.1 -7.5 0 91 0 1 1
-5.1 -7.1 0 104 0 1 1
-5.1 -6.7 0 111 0 1 1
-5.1 -6.3 0 99 0 1 1
-5.1 -5.9 0 81 0 1 1
-5.1 -5.5 0 63 0 1 1
-5.1 -4.5 0.1 83 0 1 2
-5.1 -4.5 0.4 99 0 1 2
-5.1 -4.3 0 57 0 1 2
-5.1 -4.2 0 60 0 1 2
-5.1 -4.1 0.2 101 0 1 2
-5.1 -4 0 96 0 1 2
-5.1 -4 0.1 90 0 1 2
-5.1 -3.6 0 85 0 1 1
-5.1 -3.2 0 91 0 1 1
-5.1 -2.8 0 78 0 1 1
-5.1 -2.4 0 100 0 1 1
-5.1 -2 0 78 0 1 1
-5.1 -1.6 0 100 0 1 1
-5.1 -1.2 0 68 0 1 1
-5.1 -0.8 0 96 0 1 1
-5.1 -0.4 0 65 0 1 1
-5.1 -0.1 -0.1 103 0 1 1
-5.1 0.3 -0.4 77 0 1 1
-5.1 0.6 -0.7 74 0 1 4
-5.1 1 -0.9 85 0 1 4
-5.1 1.4 -0.9 44 0 1 4
-5.1 1.8 -0.9 80 0 1 4
-5 -4.6 0.3 104 0 1 2
-5 -4.5 0.1 84 0 1 2
-5 -4.2 0.1 77 0 1 2
-5 -4.2 0.2 142 0 1 2
-4.9 -5 -0.1 87 0 1 2
-4.9 -4.9 0.3 92 0 1 2
-4.9 -4.5 0.2 87 0 1 2
-4.9 -4.2 0 104 0 1 2
-4.8 -8.7 0 74 0 1 1
-4.8 -8.3 0 96 0 1 5
-4.8 -7.9 0 45 0 1 1
-4.8 -7.5 0 82 0 1 1
-4.8 -7.1 0 95 0 1 1
-4.8 -6.7 0 49 0 1 1
-4.8 -6.3 0 65 0 1 1
-4.8 -5.9 0 103 0 1 1
-4.8 -5.5 0 88 0 1 1
-4.8 -5.1 0 94 0 1 1
-4.8 -4.6 0.2 123 0 1 2
-4.8 -4.5 0 78 0 1 2
-4.8 -4.4 0 99 0 1 1
-4.8 -4.4 0.1 71 0 1 2
-4.8 -4 0 105 0 1 1
-4.8 -3.6 0 89 0 1 1
-4.8 -3.2 0 88 0 1 1
-4.8 -2.8 0 97 0 1 1
-4.8 -2.4 0 87 0 1 1
-4.8 -2 0 93 0 1 1
-4.8 -1.6 0 90 0 1 1
-4.8 -1.2 0 107 0 1 1
-4.8 -0.8 0 88 0 1 1
-4.8 -0.4 0 108 0 1 1
-4.8 -0.1 -0.1 100 0 1 1
-4.7 -4.9 0.1 106 0 1 2
-4.7 -4.8 0 97 0 1 2
-4.7 -4.8 0.2 115 0 1 2
-4.7 -4.4 0 100 0 1 2
-4.7 0.3 -0.4 102 0 1 1
-4.7 0.6 -0.7 96 0 1 4
-4.4 -8.7 0 109 0 1 1
-4.4 -8.3 0 102 0 1 1
-4.4 -7.9 0 86 0 1 1
-4.4 -7.5 0 107 0 1 1
-4.4 -7.1 0 99 0 1 1
-4.4 -6.7 0 87 0 1 1
-4.4 -6.3 0 101 0 1 1
-4.4 -5.9 0 92 0 1 1
-4.4 -5.5 0 61 0 1 1
-4.4 -5.1 0 55 0 1 1
-4.4 -4.8 0 99 0 1 1
-4.4 -4.4 0 106 0 1 1
-4.4 -4 0 96 0 1 1
-4.4 -3.6 0 79 0 1 1
-4.4 -3.2 0 99 0 1 1
-4.4 -2.8 0 94 0 1 1
-4.4 -2.4 0 87 0 1 1
-4.4 -2 0 94 0 1 1
-4.4 -1.6 0 64 0 1 1
-4.4 -1.2 0 98 0 1 1
-4.4 -0.8 0 95 0 1 1
-4.4 -0.4 0 98 0 1 1
-4.4 -0.1 -0.1 105 0 1 1
-4.3 0.3 -0.4 68 0 1 1
-4 -7.9 0 101 0 1 1
-4 -7.5 0 73 0 1 1
-4 -6.7 0 98 0 1 1
-4 -6.3 0 93 0 1 1
-4 -5.9 0 65 0 1 1
-4 -5.5 0 91 0 1 1
-4 -5.1 0 59 0 1 1
-4 -4.8 0 103 0 1 1
-4 -4.4 0 78 0 1 1
-4 -4 0 106 0 1 1
-4 -3.6 0 90 0 1 1
-4 -3.2 0 96 0 1 1
-4 -2.8 0 102 0 1 1
-4 -2.4 0 97 0 1 1
-4 -2 0 102 0 1 1
-4 -1.6 0 102 0 1 1
-4 -1.2 0 105 0 1 1
-4 -0.8 0 66 0 1 1
-4 -0.4 0 74 0 1 1
-4 -0.1 -0.1 102 0 1 1
-4 0.3 -0.4 103 0 1 1
-3.6 -6.3 0 98 0 1 1
-3.6 -5.9 0 85 0 1 1
-3.6 -5.5 0 98 0 1 1
-3.6 -5.1 0 100 0 1 1
-3.6 -4.8 0 101 0 1 1
-3.6 -4.4 0 116 0 1 1
-3.6 -4 0 101 0 1 1
-3.6 -3.6 0 96 0 1 1
-3.6 -3.2 0 76 0 1 1
-3.6 -2.8 0 97 0 1 1
-3.6 -2.4 0 108 0 1 1
-3.6 -2 0 79 0 1 1
-3.6 -1.6 0 116 0 1 1
-3.6 -1.2 0 75 0 1 1
-3.6 -0.8 0 99 0 1 1
-3.6 -0.4 0 81 0 1 1
-3.6 -0.1 -0.1 97 0 1 1
-3.5 -6.2 0.2 59 0 1 2
-3.5 -6.2 0.3 71 0 1 2
-3.5 -6.1 0.1 54 0 1 2
-3.4 -6.1 0.2 56 0 1 2
-3.3 -5.9 0 77 0 1 2
-3.2 -6.2 0.1 35 0 1 2
-3.2 -6 0 27 0 1 2
-3.2 -5.9 0 107 0 1 1
-3.2 -5.9 0.1 91 0 1 2
-3.2 -5.8 0 92 0 1 2
-3.2 -5.5 0 83 0 1 1
-3.2 -5.1 0 103 0 1 1
-3.2 -4.8 0 98 0 1 1
-3.2 -4.4 0 106 0 1 1
-3.2 -4 0 89 0 1 1
-3.2 -3.6 0 111 0 1 1
-3.2 -3.2 0 112 0 1 1
-3.2 -2.8 0 101 0 1 1
-3.2 -2.4 0 105 0 1 1
-3.2 -2 0 78 0 1 1
-3.2 -1.6 0 104 0 1 1
-3.2 -1.2 0 96 0 1 1
-3.2 -0.8 0 102 0 1 1
-3.2 -0.4 0 68 0 1 1
-3.1 -5.9 0 106 0 1 2
-3 -6 0.3 106 0 1 2
-3 -5.8 0.3 84 0 1 2
-2.8 -5.7 0 41 0 1 2
-2.8 -5.5 0 108 0 1 1
-2.8 -5.1 0 98 0 1 1
-2.8 -4.8 0 79 0 1 1
-2.8 -4.4 0 106 0 1 1
-2.8 -4 0 95 0 1 1
-2.8 -3.6 0 109 0 1 1
-2.8 -3.2 0 93 0 1 1
-2.8 -2.8 0 77 0 1 1
-2.8 -2.4 0 91 0 1 1
-2.8 -2 0 74 0 1 1
-2.8 -1.6 0 119 0 1 1
-2.8 -1.2 0 95 0 1 1
-2.4 -4.8 0 110 0 1 1
-2.4 -4.4 0 94 0 1 1
-2.4 -4 0 98 0 1 1
-2.4 -3.6 0 110 0 1 1
-2.4 -3.2 0 96 0 1 1
-2.4 -2.8 0 69 0 1 1
-2.4 -2.4 0 101 0 1 1
-2 -4 0 89 0 1 1
-2 -3.6 0 109 0 1 1
