-14.2 -14.2 -0.3 110 0 1 1
-14.1 -14.3 -0.3 103 0 1 1
-14.1 -14.2 -0.3 114 0 1 1
-13.8 -14.4 -0.4 111 0 1 1
-13.6 -14.7 -0.4 87 0 1 1
-13.6 -14.2 -0.4 108 0 1 1
-13.6 -13.8 -0.4 108 0 1 1
-13.5 -14.7 -0.4 95 0 1 1
-13.1 -15.1 -0.4 108 0 1 1
-13.1 -14.7 -0.4 109 0 1 1
-13.1 -14.3 -0.4 109 0 1 1
-13.1 -13.8 -0.4 111 0 1 1
-13.1 -13.3 -0.4 112 0 1 1
-13 -15.1 -0.4 107 0 1 1
-12.9 -15.2 -0.4 77 0 1 1
-12.7 -15.4 -0.3 104 0 1 1
-12.7 -15.2 -0.3 108 0 1 1
-12.7 -14.7 -0.4 105 0 1 1
-12.7 -14.3 -0.4 104 0 1 1
-12.7 -13.8 -0.4 109 0 1 1
-12.7 -13.3 -0.4 99 0 1 1
-12.7 -12.8 -0.4 116 0 1 1
-12.5 -15.6 -0.3 102 0 1 1
-12.4 -15.7 -0.3 97 0 1 1
-12.2 -15.8 -0.3 87 0 1 1
-12.2 -15.7 -0.3 95 0 1 1
-12.2 -15.2 -0.3 107 0 1 1
-12.2 -14.7 -0.3 101 0 1 1
-12.2 -14.3 -0.3 105 0 1 1
-12.2 -13.8 -0.4 92 0 1 1
-12.2 -13.3 -0.4 84 0 1 1
-12.2 -12.8 -0.3 84 0 1 1
-12.2 -12.3 -0.3 89 0 1 1
-12 -16 -0.3 81 0 1 1
-11.8 -15.7 -0.3 103 0 1 1
-11.8 -15.2 -0.3 106 0 1 1
-11.8 -14.7 -0.3 106 0 1 1
-11.8 -14.2 -0.3 111 0 1 1
-11.8 -13.8 -0.3 99 0 1 1
-11.8 -13.3 -0.3 75 0 1 1
-11.8 -12.8 -0.3 61 0 1 1
-11.8 -12.3 -0.3 72 0 1 1
-11.8 -11.8 -0.2 104 0 1 1
-11.4 -14.7 -0.3 107 0 1 1
-11.4 -14.2 -0.3 107 0 1 1
-11.4 -13.8 -0.3 108 0 1 1
-11.4 -13.3 -0.3 84 0 1 1
-11.4 -12.8 -0.3 67 0 1 1
-11.4 -12.3 -0.2 86 0 1 1
-11.4 -11.8 -0.2 103 0 1 1
-11.4 -11.3 -0.2 99 0 1 1
-11 -14.2 -0.2 109 0 1 1
-11 -13.7 -0.2 108 0 1 1
-11 -12.8 -0.2 102 0 1 1
-11 -12.3 -0.2 108 0 1 1
-10.9 -11.8 -0.2 105 0 1 1
-10.9 -11.3 -0.1 103 0 1 1
-10.6 -13.3 -0.2 101 0 1 1
-10.5 -13.7 -0.2 89 0 1 1
-10.5 -12.8 -0.2 105 0 1 1
-10.5 -12.3 -0.2 102 0 1 1
-10.5 -11.8 -0.1 112 0 1 1
-10.5 -11.3 -0.1 111 0 1 1
-10.5 -10.8 -0.1 110 0 1 1
-10.1 -12.8 -0.1 104 0 1 1
-10.1 -12.3 -0.1 106 0 1 1
-10.1 -11.8 -0.1 106 0 1 1
-10.1 -11.3 -0.1 108 0 1 1
-10.1 -10.8 -0.1 110 0 1 1
-10.1 -10.3 0 108 0 1 1
-9.7 -12.2 -0.1 109 0 1 1
-9.7 -11.7 -0.1 117 0 1 1
-9.7 -11.2 0 112 0 1 1
-9.6 -10.7 0 107 0 1 1
-9.6 -10.2 0 107 0 1 1
-9.6 -9.7 0 112 0 1 1
-9.2 -11.7 0 93 0 1 1
-9.2 -11.2 0 102 0 1 1
-9.2 -10.7 0 107 0 1 1
-9.2 -10.2 0 116 0 1 1
-9.2 -9.7 0 112 0 1 1
-9.2 -9.2 0.1 117 0 1 1
-8.8 -10.7 0 107 0 1 1
-8.8 -10.2 0.1 112 0 1 1
-8.8 -9.7 0.1 108 0 1 1
-8.8 -9.2 0.1 102 0 1 1
-8.7 -8.7 0.1 108 0 1 1
-8.4 -10.2 0.1 108 0 1 1
-8.3 -9.7 0.1 112 0 1 1
-8.3 -9.2 0.1 114 0 1 1
-8.3 -8.7 0.1 114 0 1 1
-8.3 -8.2 0.1 118 0 1 1
-8 -18.2 0 126 0 1 1
-7.9 -9.7 0.1 109 0 1 1
-7.9 -9.2 0.1 115 0 1 1
-7.9 -8.7 0.1 107 0 1 1
-7.9 -8.2 0.2 116 0 1 1
-7.8 -18.5 0 81 0 1 1
-7.8 -18 0 96 0 1 1
-7.7 -18.5 0 90 0 1 1
-7.5 -8.7 0.2 114 0 1 1
-7.4 -17.6 0 102 0 1 1
-7.4 -17.1 0 108 0 1 1
-7.4 -8.2 0.2 108 0 1 1
-7.4 -7.7 0.2 105 0 1 1
-7.3 -18.6 0 107 0 1 1
-7.3 -18.5 0 103 0 1 1
-7.3 -18 0 92 0 1 1
-7 -17.1 0 114 0 1 1
-7 -16.6 0 109 0 1 1
-7 -16.1 0.1 84 0 1 1
-7 -8.2 0.2 113 0 1 1
-7 -7.7 0.2 111 0 1 1
-7 -7.2 0.2 100 0 1 1
-6.9 -18.8 0 87 0 1 1
-6.9 -18.5 0 106 0 1 1
-6.9 -18 0 107 0 1 1
-6.9 -17.5 0 111 0 1 1
-6.6 -15.1 0.1 125 0 1 1
-6.5 -16.6 0 114 0 1 1
-6.5 -16.1 0 113 0 1 1
-6.5 -15.6 0.1 119 0 1 1
-6.5 -7.7 0.2 117 0 1 1
-6.5 -7.2 0.2 116 0 1 1
-6.5 -6.7 0.2 120 0 1 1
-6.4 -18.5 0 109 0 1 1
-6.4 -18 0 112 0 1 1
-6.4 -17.6 0 111 0 1 1
-6.4 -17.1 0 112 0 1 1
-6.3 -18.9 0 96 0 1 1
-6.2 -19 0 96 0 1 1
-6.1 -19 0 98 0 1 1
-6.1 -14.7 0.1 61 0 1 1
-6.1 -14.2 0.1 82 0 1 1
-6 -16.6 0 116 0 1 1
-6 -16.1 0 110 0 1 1
-6 -15.6 0 118 0 1 1
-6 -15.1 0.1 111 0 1 1
-6 -6.8 0.2 106 0 1 1
-6 -6.3 0.2 111 0 1 1
-5.9 -18.5 0 111 0 1 1
-5.9 -18 0 112 0 1 1
-5.9 -17.6 0 118 0 1 1
-5.9 -17.1 0 115 0 1 1
-5.8 -19.1 0 106 0 1 1
-5.8 -19 0 106 0 1 1
-5.7 -7 0.6 113 0 1 3
-5.7 -6.7 0.4 102 0 1 3
-5.6 -19.1 0 109 0 1 1
-5.6 -14.7 0 70 0 1 1
-5.6 -14.2 0 68 0 1 1
-5.6 -13.7 0.1 117 0 1 1
-5.6 -13.2 0.1 122 0 1 1
-5.6 -6.9 0.5 116 0 1 3
-5.6 -6.7 0.4 96 0 1 3
-5.6 -6.6 0.2 96 0 1 3
-5.6 -6.6 0.4 71 0 1 3
-5.5 -16.6 0 121 0 1 1
-5.5 -16.1 0 102 0 1 1
-5.5 -15.6 0 118 0 1 1
-5.5 -15.2 0 107 0 1 1
-5.5 -7 0.8 98 0 1 3
-5.5 -6.6 0.3 93 0 1 3
-5.5 -6.3 0.2 117 0 1 1
-5.5 -5.9 0.2 113 0 1 1
-5.5 -5.4 0.2 121 0 1 1
-5.4 -18 0 112 0 1 1
-5.4 -17.6 0 120 0 1 1
-5.4 -17.1 0 117 0 1 1
-5.4 -7.1 0.8 97 0 1 3
-5.3 -19.3 0 88 0 1 1
-5.3 -19 0 111 0 1 1
-5.3 -18.5 0 110 0 1 1
-5.3 -7.1 1 90 0 1 3
-5.3 -6.6 0.3 96 0 1 3
-5.1 -14.7 0 100 0 1 1
-5.1 -14.2 0 102 0 1 1
-5.1 -13.7 0 114 0 1 1
-5.1 -13.3 0 116 0 1 1
-5.1 -12.8 0.1 121 0 1 1
-5.1 -12.3 0.1 110 0 1 1
-5.1 -7.1 1.1 75 0 1 3
-5.1 -6.7 0.5 122 0 1 3
-5 -16.1 0 122 0 1 1
-5 -15.7 0 117 0 1 1
-5 -15.2 0 121 0 1 1
-5 -6.9 0.7 107 0 1 3
-5 -6.4 0.2 103 0 1 1
-5 -5 0.1 107 0 1 1
-4.9 -18 0 108 0 1 1
-4.9 -17.6 0 123 0 1 1
-4.9 -17.1 0 110 0 1 1
-4.9 -16.6 0 117 0 1 1
-4.9 -7.2 1.3 93 0 1 3
-4.9 -7 0.8 95 0 1 3
-4.9 -6.9 0.7 101 0 1 3
-4.8 -19.4 -0.1 108 0 1 1
-4.8 -19 0 116 0 1 1
-4.8 -18.5 0 108 0 1 1
-4.8 -7.2 1.3 85 0 1 3
-4.7 -19.4 -0.1 109 0 1 1
-4.7 -7.3 1.4 118 0 1 3
-4.7 -7 0.9 97 0 1 3
-4.7 -7 1 94 0 1 3
-4.6 -19.5 -0.1 107 0 1 1
-4.6 -14.2 0 118 0 1 1
-4.6 -13.8 0 117 0 1 1
-4.6 -13.3 0 118 0 1 1
-4.6 -12.8 0 120 0 1 1
-4.6 -12.3 0 129 0 1 1
-4.6 -11.8 0.1 112 0 1 1
-4.6 -11.3 0.1 116 0 1 1
-4.6 -7.5 1.4 82 0 1 3
-4.6 -7.5 1.5 96 0 1 3
-4.6 -7.1 1.2 98 0 1 3
-4.6 -7 1 96 0 1 3
-4.6 -6.6 0.5 107 0 1 3
-4.6 -5 0.4 117 0 1 2
-4.5 -16.1 0 133 0 1 1
-4.5 -15.7 0 123 0 1 1
-4.5 -15.2 0 122 0 1 1
-4.5 -14.7 0 116 0 1 1
-4.5 -7.6 1.5 112 0 1 3
-4.5 -6.4 0.2 121 0 1 1
-4.5 -6 0.2 120 0 1 1
-4.5 -4.8 0.4 121 0 1 2
-4.5 -4.6 0.1 116 0 1 1
-4.4 -18 0 109 0 1 1
-4.4 -17.6 0 111 0 1 1
-4.4 -17.1 0 103 0 1 1
-4.4 -16.6 0 116 0 1 1
-4.4 -8 1.5 92 0 1 3
-4.4 -7.5 1.5 128 0 1 3
-4.4 -5.2 0.4 117 0 1 2
-4.4 -4.6 0.4 123 0 1 2
-4.3 -19.6 -0.1 86 0 1 1
-4.3 -19.5 -0.1 112 0 1 1
-4.3 -19 -0.1 116 0 1 1
-4.3 -18.5 0 116 0 1 1
-4.3 -8 1.5 82 0 1 3
-4.3 -7.5 1.4 123 0 1 3
-4.3 -4.9 0.4 128 0 1 2
-4.3 -4.8 0.4 123 0 1 2
-4.3 -4.6 0.1 46 0 1 2
-4.3 -4.5 0.2 85 0 1 2
-4.3 -4.5 0.4 99 0 1 2
-4.2 -8.1 1.5 109 0 1 3
-4.2 -7.3 1.4 126 0 1 3
-4.2 -7 1 117 0 1 3
-4.2 -6.9 0.8 126 0 1 3
-4.2 -5.3 0.4 118 0 1 2
-4.1 -19.6 -0.1 93 0 1 1
-4.1 -14.3 0 123 0 1 1
-4.1 -13.8 0 120 0 1 1
-4.1 -13.3 0 127 0 1 1
-4.1 -12.8 0 112 0 1 1
-4.1 -12.3 0 119 0 1 1
-4.1 -11.9 0 114 0 1 1
-4.1 -11.4 0 115 0 1 1
-4.1 -10.9 0.1 91 0 1 1
-4.1 -10.4 0.1 116 0 1 1
-4.1 -9.9 0.1 120 0 1 1
-4.1 -7.8 1.4 128 0 1 3
-4.1 -7.3 1.3 117 0 1 3
-4.1 -7.1 1.3 118 0 1 3
-4.1 -6.5 0.2 114 0 1 1
-4.1 -5.2 0.2 118 0 1 2
-4.1 -5.2 0.3 124 0 1 2
-4.1 -5.1 0.4 127 0 1 2
-4.1 -5 0.4 128 0 1 2
-4.1 -4.8 0.4 131 0 1 2
-4.1 -4.6 0.4 127 0 1 2
-4 -19.7 -0.1 98 0 1 1
-4 -16.2 0 120 0 1 1
-4 -15.7 0 116 0 1 1
-4 -15.2 0 110 0 1 1
-4 -14.7 0 125 0 1 1
-4 -8.2 1.4 93 0 1 3
-4 -7.8 1.4 128 0 1 3
-4 -7.1 1.3 127 0 1 3
-4 -7 0.9 117 0 1 3
-4 -6.9 0.4 113 0 1 3
-4 -6 0.2 121 0 1 1
-4 -5.6 0.1 124 0 1 1
-4 -5.1 0.1 106 0 1 1
-4 -5 0.4 111 0 1 2
-4 -4.6 0.1 115 0 1 1
-4 -4.2 0.1 117 0 1 1
-3.9 -19.7 -0.1 99 0 1 1
-3.9 -18 -0.1 119 0 1 1
-3.9 -17.6 0 111 0 1 1
-3.9 -17.1 0 116 0 1 1
-3.9 -16.6 0 119 0 1 1
-3.9 -7.2 1.2 124 0 1 3
-3.9 -7.2 1.3 129 0 1 3
-3.9 -4.9 0.3 136 0 1 2
-3.9 -4.7 0.3 120 0 1 2
-3.8 -19.7 -0.1 101 0 1 1
-3.8 -19.5 -0.1 112 0 1 1
-3.8 -19 -0.1 115 0 1 1
-3.8 -18.5 -0.1 109 0 1 1
-3.8 -8.4 1.3 90 0 1 3
-3.8 -7.7 1.3 129 0 1 3
-3.8 -7.6 1.3 131 0 1 3
-3.8 -7.1 1 128 0 1 3
-3.7 -8.4 0.8 134 0 1 3
-3.7 -8.4 1.2 110 0 1 3
-3.7 -8.1 0.9 131 0 1 3
-3.7 -8.1 1 137 0 1 3
-3.7 -7.8 1.2 136 0 1 3
-3.7 -7.7 1 137 0 1 3
-3.7 -7.6 1.1 129 0 1 3
-3.7 -7.2 0.8 129 0 1 3
-3.7 -7.2 0.9 131 0 1 3
-3.6 -13.8 0 121 0 1 1
-3.6 -13.3 0 114 0 1 1
-3.6 -12.9 0 93 0 1 1
-3.6 -12.4 0 120 0 1 1
-3.6 -11.9 0 120 0 1 1
-3.6 -11.4 0 118 0 1 1
-3.6 -10.9 0 115 0 1 1
-3.6 -10.4 0.1 122 0 1 1
-3.6 -9.9 0.1 125 0 1 1
-3.6 -9.4 0.1 114 0 1 1
-3.6 -9 0.1 118 0 1 1
-3.6 -8.5 0.4 122 0 1 3
-3.6 -8.4 0.7 135 0 1 3
-3.6 -8 0.4 136 0 1 3
-3.6 -7.3 0.8 137 0 1 3
-3.6 -7.3 0.9 136 0 1 3
-3.6 -7.2 0.5 140 0 1 3
-3.6 -7.2 0.6 139 0 1 3
-3.6 -7 0.2 123 0 1 1
-3.6 -6.5 0.2 97 0 1 1
-3.6 -6.1 0.2 116 0 1 1
-3.6 -5.6 0.1 122 0 1 1
-3.5 -15.7 -0.1 131 0 1 1
-3.5 -15.2 -0.1 124 0 1 1
-3.5 -14.8 -0.1 129 0 1 1
-3.5 -14.3 0 123 0 1 1
-3.5 -8.4 0.3 141 0 1 3
-3.5 -7.8 0.2 134 0 1 3
-3.5 -7.3 0.5 133 0 1 3
-3.5 -7.1 0.4 135 0 1 3
-3.5 -5.1 0.1 119 0 1 1
-3.5 -4.7 0.1 113 0 1 1
-3.5 -4.2 0.1 116 0 1 1
-3.5 -3.7 0 123 0 1 1
-3.4 -17.6 -0.1 126 0 1 1
-3.4 -17.1 -0.1 119 0 1 1
-3.4 -16.6 -0.1 118 0 1 1
-3.4 -16.2 -0.1 84 0 1 1
-3.3 -19.7 -0.1 103 0 1 1
-3.3 -19.5 -0.1 112 0 1 1
-3.3 -19 -0.1 114 0 1 1
-3.3 -18.5 -0.1 116 0 1 1
-3.3 -18.1 -0.1 119 0 1 1
-3.1 -13.8 -0.1 109 0 1 1
-3.1 -13.4 -0.1 125 0 1 1
-3.1 -12.9 -0.1 106 0 1 1
-3.1 -12.4 0 119 0 1 1
-3.1 -11.9 0 115 0 1 1
-3.1 -11.4 0 117 0 1 1
-3.1 -10.9 0 119 0 1 1
-3.1 -10.5 0 115 0 1 1
-3.1 -10 0.1 117 0 1 1
-3.1 -9.5 0.1 120 0 1 1
-3.1 -9 0.1 108 0 1 1
-3.1 -8.5 0.1 114 0 1 1
-3.1 -8 0.1 108 0 1 1
-3.1 -7.5 0.2 120 0 1 1
-3.1 -7.1 0.2 121 0 1 1
-3.1 -6.6 0.2 121 0 1 1
-3.1 -6.1 0.2 124 0 1 1
-3.1 -5.6 0.1 114 0 1 1
-3.1 -5.2 0.1 109 0 1 1
-3 -15.7 -0.1 112 0 1 1
-3 -15.2 -0.1 123 0 1 1
-3 -14.8 -0.1 115 0 1 1
-3 -14.3 -0.1 123 0 1 1
-3 -4.7 0.1 117 0 1 1
-3 -4.2 0.1 117 0 1 1
-3 -3.8 0 115 0 1 1
-2.9 -17.6 -0.1 108 0 1 1
-2.9 -17.1 -0.1 110 0 1 1
-2.9 -16.6 -0.1 107 0 1 1
-2.9 -16.2 -0.1 99 0 1 1
-2.9 -3 0.1 101 0 1 2
-2.9 -3 0.2 108 0 1 2
-2.9 -2.9 0.1 98 0 1 2
-2.8 -19.5 -0.1 121 0 1 1
-2.8 -19 -0.1 112 0 1 1
-2.8 -18.5 -0.1 112 0 1 1
-2.8 -18.1 -0.1 116 0 1 1
-2.8 -3.1 0.2 100 0 1 2
-2.7 -19.8 -0.1 113 0 1 1
-2.7 -3.1 0.3 101 0 1 2
-2.7 -2.9 0.2 77 0 1 2
-2.6 -13.9 -0.1 108 0 1 1
-2.6 -13.4 -0.1 124 0 1 1
-2.6 -12.9 -0.1 123 0 1 1
-2.6 -12.4 -0.1 118 0 1 1
-2.6 -11.9 0 118 0 1 1
-2.6 -11.5 0 121 0 1 1
-2.6 -11 0 119 0 1 1
-2.6 -10.5 0 119 0 1 1
-2.6 -10 0 124 0 1 1
-2.6 -9.5 0.1 119 0 1 1
-2.6 -9 0.1 116 0 1 1
-2.6 -8.6 0.1 120 0 1 1
-2.6 -8.1 0.1 120 0 1 1
-2.6 -7.6 0.1 118 0 1 1
-2.6 -7.1 0.2 115 0 1 1
-2.6 -6.6 0.2 116 0 1 1
-2.6 -6.2 0.2 125 0 1 1
-2.6 -5.7 0.1 119 0 1 1
-2.6 -5.2 0.1 121 0 1 1
-2.6 -3.2 0.3 118 0 1 2
-2.6 -3.1 0.4 103 0 1 2
-2.6 -2.9 0.3 124 0 1 2
-2.6 -2.9 0.4 120 0 1 2
-2.6 -2.8 0.3 113 0 1 2
-2.6 -2.7 0.2 118 0 1 2
-2.5 -15.7 -0.1 104 0 1 1
-2.5 -15.3 -0.1 121 0 1 1
-2.5 -14.8 -0.1 125 0 1 1
-2.5 -14.3 -0.1 124 0 1 1
-2.5 -4.7 0.1 114 0 1 1
-2.5 -4.3 0.1 121 0 1 1
-2.5 -3.8 0.1 123 0 1 1
-2.5 -3.3 0 126 0 1 1
-2.5 -3.1 0.3 121 0 1 2
-2.5 -3 0.3 124 0 1 2
-2.4 -17.6 -0.1 99 0 1 1
-2.4 -17.1 -0.1 74 0 1 1
-2.4 -16.7 -0.1 78 0 1 1
-2.4 -16.2 -0.1 88 0 1 1
-2.4 -3.1 0.2 126 0 1 2
-2.4 -3 0.2 127 0 1 2
-2.4 -3 0.3 119 0 1 2
-2.4 -2.9 0.2 131 0 1 2
-2.4 -2.9 0.3 131 0 1 2
-2.4 -2.8 0.1 131 0 1 2
-2.3 -19.5 -0.1 115 0 1 1
-2.3 -19 -0.1 118 0 1 1
-2.3 -18.5 -0.1 116 0 1 1
-2.3 -18.1 -0.1 112 0 1 1
-2.3 -3 0.1 130 0 1 2
-2.2 -19.8 -0.1 105 0 1 1
-2.1 -13.4 -0.1 119 0 1 1
-2.1 -12.9 -0.1 124 0 1 1
-2.1 -12.5 -0.1 115 0 1 1
-2.1 -12 -0.1 112 0 1 1
-2.1 -11.5 0 120 0 1 1
-2.1 -11 0 113 0 1 1
-2.1 -10.5 0 125 0 1 1
-2.1 -8.6 0.1 100 0 1 1
-2.1 -8.1 0.1 111 0 1 1
-2.1 -7.6 0.1 121 0 1 1
-2.1 -7.2 0.2 112 0 1 1
-2.1 -6.7 0.2 109 0 1 1
-2.1 -6.2 0.2 117 0 1 1
-2.1 -5.7 0.1 127 0 1 1
-2.1 -5.3 0.1 124 0 1 1
-2.1 -4.8 0.1 121 0 1 1
-2 -15.3 -0.1 105 0 1 1
-2 -14.8 -0.1 123 0 1 1
-2 -14.3 -0.1 121 0 1 1
-2 -13.9 -0.1 126 0 1 1
-2 -7.7 0.2 99 0 1 2
-2 -4.3 0.1 118 0 1 1
-2 -3.8 0.1 110 0 1 1
-2 -3.4 0 110 0 1 1
-2 -2.9 0 119 0 1 1
-1.9 -16.1 -0.1 44 0 1 3
-1.9 -16 -0.1 46 0 1 3
-1.9 -15.9 -0.1 52 0 1 3
-1.9 -15.7 -0.1 62 0 1 1
-1.9 -7.9 0.3 99 0 1 2
-1.9 -7.8 0.2 96 0 1 2
-1.8 -16 0.1 91 0 1 3
-1.8 -16 0.3 90 0 1 3
-1.8 -15.9 0.3 52 0 1 3
-1.8 -15.7 0 44 0 1 3
-1.8 -15.6 0.2 44 0 1 3
-1.8 -15.4 -0.1 40 0 1 3
-1.8 -15.3 0 40 0 1 3
-1.8 -7.9 0.3 103 0 1 2
-1.8 -7.9 0.4 94 0 1 2
-1.8 -7.7 0.3 67 0 1 2
-1.8 -7.6 0.2 71 0 1 2
-1.8 -7.5 0.2 50 0 1 2
-1.7 -16 0.5 50 0 1 3
-1.7 -15.8 0.4 45 0 1 3
-1.7 -15.7 0.6 44 0 1 3
-1.7 -15.6 0.3 44 0 1 3
-1.7 -15.3 0.1 42 0 1 3
-1.7 -15 0 43 0 1 3
-1.7 -7.9 0.5 109 0 1 2
-1.7 -7.5 0.3 71 0 1 2
-1.7 -7.5 0.4 126 0 1 2
-1.6 -15.8 0.7 45 0 1 3
-1.6 -15.7 0.7 53 0 1 3
-1.6 -15.6 0.6 40 0 1 3
-1.6 -15.5 0.4 45 0 1 3
-1.6 -15.3 0.3 44 0 1 3
-1.6 -15 0.1 39 0 1 3
-1.6 -14.8 0 39 0 1 3
-1.6 -13.4 -0.2 123 0 1 1
-1.6 -13 -0.1 119 0 1 1
-1.6 -12.5 -0.1 108 0 1 1
-1.6 -12 -0.1 109 0 1 1
-1.6 -11.5 -0.1 121 0 1 1
-1.6 -11 0 112 0 1 1
-1.6 -10.6 0 116 0 1 1
-1.6 -10.1 0 115 0 1 1
-1.6 -9.6 0 123 0 1 1
-1.6 -8 0.5 124 0 1 2
-1.6 -7.9 0.5 116 0 1 2
-1.6 -7.8 0.5 122 0 1 2
-1.6 -7.7 0.5 111 0 1 2
-1.6 -7.6 0.5 109 0 1 2
-1.6 -7.5 0.2 139 0 1 2
-1.6 -7.4 0.2 135 0 1 2
-1.6 -7.2 0.1 118 0 1 1
-1.6 -6.7 0.2 119 0 1 1
-1.6 -6.3 0.2 121 0 1 1
-1.6 -5.8 0.1 123 0 1 1
-1.6 -5.3 0.1 128 0 1 1
-1.6 -4.8 0.1 121 0 1 1
-1.5 -15.5 0.8 61 0 1 3
-1.5 -15.4 0.6 42 0 1 3
-1.5 -15.2 0.5 32 0 1 3
-1.5 -14.9 0.1 39 0 1 3
-1.5 -14.7 0 39 0 1 3
-1.5 -14.6 -0.1 49 0 1 3
-1.5 -14.4 -0.1 119 0 1 1
-1.5 -13.9 -0.2 121 0 1 1
-1.5 -7.9 0.4 125 0 1 2
-1.5 -7.8 0.5 126 0 1 2
-1.5 -4.4 0.1 120 0 1 1
-1.5 -3.9 0.1 126 0 1 1
-1.5 -3.4 0 121 0 1 1
-1.5 -2.9 0 123 0 1 1
-1.4 -16 0.8 79 0 1 3
-1.4 -15.4 0.8 83 0 1 3
-1.4 -15.3 0.8 128 0 1 3
-1.4 -14.8 0.3 42 0 1 3
-1.4 -14.6 0.1 69 0 1 3
-1.4 -14.6 0.2 39 0 1 3
-1.4 -7.9 0.4 127 0 1 2
-1.4 -7.8 0.4 130 0 1 2
-1.4 -7.7 0.3 140 0 1 2
-1.4 -7.6 0.1 120 0 1 2
-1.4 -7.6 0.2 133 0 1 2
-1.4 -7.6 0.3 137 0 1 2
-1.3 -15.9 0.9 44 0 1 3
-1.3 -15.7 0.9 44 0 1 3
-1.3 -15.2 0.7 119 0 1 3
-1.3 -15 0.7 100 0 1 3
-1.3 -14.9 0.6 43 0 1 3
-1.3 -14.6 0.2 63 0 1 3
-1.3 -14.6 0.3 76 0 1 3
-1.3 -14.6 0.4 67 0 1 3
-1.3 -7.9 0.1 123 0 1 2
-1.3 -7.9 0.2 132 0 1 2
-1.2 -16.2 1.2 41 0 1 3
-1.2 -15.7 1.2 49 0 1 3
-1.2 -15.4 1.1 48 0 1 3
-1.2 -15 0.7 108 0 1 3
-1.2 -14.8 0.6 121 0 1 3
-1.2 -14.7 0.6 84 0 1 3
-1.2 -14.6 0.2 74 0 1 3
-1.2 -14.6 0.5 51 0 1 3
-1.2 -14.5 0.3 77 0 1 3
-1.2 -14.5 0.5 68 0 1 3
-1.2 -6.8 0.2 116 0 1 1
-1.1 -15 0.8 40 0 1 3
-1.1 -14.6 0.1 76 0 1 3
-1.1 -14.5 0.5 102 0 1 3
-1.1 -13 -0.2 122 0 1 1
-1.1 -12.5 -0.1 115 0 1 1
-1.1 -12 -0.1 115 0 1 1
-1.1 -11.6 -0.1 120 0 1 1
-1.1 -11.1 -0.1 124 0 1 1
-1.1 -10.6 0 112 0 1 1
-1.1 -10.1 0 115 0 1 1
-1.1 -9.6 0 101 0 1 1
-1.1 -9.2 0 124 0 1 1
-1.1 -8.7 0.1 121 0 1 1
-1.1 -8.2 0.1 122 0 1 1
-1.1 -7.7 0.1 129 0 1 1
-1.1 -7.3 0.1 125 0 1 1
-1.1 -6.3 0.2 125 0 1 1
-1.1 -5.8 0.1 118 0 1 1
-1.1 -5.3 0.1 120 0 1 1
-1.1 -4.9 0.1 99 0 1 1
-1.1 -4.4 0.1 119 0 1 1
-1 -16.3 1.5 117 0 1 3
-1 -15.9 1.5 94 0 1 3
-1 -15.7 1.5 124 0 1 3
-1 -15.4 1.5 88 0 1 3
-1 -14.9 0.8 41 0 1 3
-1 -14.8 0.6 115 0 1 3
-1 -14.5 0.5 118 0 1 3
-1 -14.4 -0.2 124 0 1 1
-1 -13.9 -0.2 122 0 1 1
-1 -13.5 -0.2 116 0 1 1
-1 -3.9 0.1 123 0 1 1
-1 -3.4 0.1 122 0 1 1
-1 -3 0 125 0 1 1
-0.9 -16.7 1.5 95 0 1 3
-0.9 -16.6 1.5 84 0 1 3
-0.9 -15 1.1 38 0 1 3
-0.9 -14.7 0.8 41 0 1 3
-0.9 -14.6 0.7 41 0 1 3
-0.9 -14.5 0.5 81 0 1 3
-0.8 -16.8 1.5 97 0 1 3
-0.8 -15.4 1.5 131 0 1 3
-0.8 -15.2 1.4 112 0 1 3
-0.8 -14.8 1.1 41 0 1 3
-0.7 -16.1 1.5 131 0 1 3
-0.7 -15.3 1.4 134 0 1 3
-0.7 -15 1.4 124 0 1 3
-0.7 -14.6 0.9 41 0 1 3
-0.7 -14.5 0.8 63 0 1 3
-0.7 -7.3 0.1 130 0 1 1
-0.7 -6.8 0.1 123 0 1 1
-0.6 -16.7 1.4 89 0 1 3
-0.6 -14.8 1.4 86 0 1 3
-0.6 -14.7 1.2 41 0 1 3
-0.6 -14.5 0 73 0 1 3
-0.6 -12.5 -0.2 119 0 1 1
-0.6 -12.1 -0.1 120 0 1 1
-0.6 -11.6 -0.1 120 0 1 1
-0.6 -11.1 -0.1 118 0 1 1
-0.6 -10.6 -0.1 122 0 1 1
-0.6 -10.2 0 134 0 1 1
-0.6 -9.7 0 117 0 1 1
-0.6 -9.2 0 122 0 1 1
-0.6 -8.7 0 125 0 1 1
-0.6 -8.3 0.1 121 0 1 1
-0.6 -7.8 0.1 123 0 1 1
-0.6 -6.4 0.1 112 0 1 1
-0.6 -5.9 0.1 126 0 1 1
-0.6 -5.4 0.1 120 0 1 1
-0.6 -4.9 0.1 116 0 1 1
-0.6 -4.4 0.1 122 0 1 1
-0.5 -16.8 1.4 96 0 1 3
-0.5 -16.2 1.4 133 0 1 3
-0.5 -15.4 1.4 135 0 1 3
-0.5 -14.7 1.4 127 0 1 3
-0.5 -14.5 0.3 70 0 1 3
-0.5 -14.5 1.2 116 0 1 3
-0.5 -14.4 -0.2 114 0 1 1
-0.5 -14.4 1 107 0 1 3
-0.5 -13.9 -0.2 125 0 1 1
-0.5 -13.5 -0.2 124 0 1 1
-0.5 -13 -0.2 127 0 1 1
-0.5 -4 0.1 117 0 1 1
-0.5 -3.5 0.1 108 0 1 1
-0.5 -3 0 118 0 1 1
-0.3 -16.6 1.3 132 0 1 3
-0.3 -14.5 1.1 130 0 1 3
-0.3 -14.4 0.9 107 0 1 3
-0.2 -16.9 1.3 90 0 1 3
-0.2 -15.4 1.3 135 0 1 3
-0.2 -14.6 1.3 129 0 1 3
-0.2 -14.4 0.2 73 0 1 3
0 -16.9 1.2 110 0 1 3
-0.1 -16.9 1.3 94 0 1 3
-0.1 -16.4 1.3 132 0 1 3
-0.1 -16.1 1.3 135 0 1 3
-0.1 -14.5 0.2 90 0 1 3
0 -14.5 1 130 0 1 3
0 -14.4 -0.2 119 0 1 1
0 -14.4 0.8 86 0 1 3
0 -14 -0.2 106 0 1 1
0 -13.5 -0.2 119 0 1 1
0 -13 -0.2 118 0 1 1
0 -12.6 -0.2 116 0 1 1
-0.1 -12.1 -0.2 119 0 1 1
-0.1 -11.6 -0.1 121 0 1 1
-0.1 -11.1 -0.1 128 0 1 1
-0.1 -10.7 -0.1 125 0 1 1
-0.1 -10.2 -0.1 130 0 1 1
-0.1 -9.8 -0.2 134 0 1 1
-0.1 -9.3 -0.2 132 0 1 1
-0.1 -8.8 -0.2 133 0 1 1
-0.1 -8.4 -0.1 130 0 1 1
-0.1 -7.9 -0.1 131 0 1 1
-0.1 -7.4 -0.1 133 0 1 1
-0.1 -6.9 0 137 0 1 1
-0.1 -6.4 0 132 0 1 1
-0.1 -6 0 148 0 1 1
-0.1 -5.5 0 124 0 1 1
-0.1 -5 0.1 119 0 1 1
-0.1 -4.5 0.1 124 0 1 1
0 -4 0.1 126 0 1 1
0 -3.5 0.1 122 0 1 1
0 -3 0.1 122 0 1 1
0.1 -16.8 1.2 130 0 1 3
0.1 -15.3 1.2 137 0 1 3
0.1 -14.6 1.2 134 0 1 3
0.1 -14.5 1 134 0 1 3
0.1 -14.4 0.8 105 0 1 3
0.2 -16.8 1.2 121 0 1 3
0.2 -16.3 1.2 134 0 1 3
0.2 -16 1.2 136 0 1 3
0.2 -14.6 1.1 139 0 1 3
0.2 -14.5 0.1 92 0 1 3
0.2 -14.4 0.8 107 0 1 3
0.3 -16.6 1.2 84 0 1 3
0.3 -16.5 1.1 100 0 1 3
0.3 -16.2 1.1 135 0 1 3
0.3 -15.7 1.1 136 0 1 3
0.3 -15 1.1 139 0 1 3
0.3 -14.5 0.9 137 0 1 3
0.3 -14.4 0.8 145 0 1 3
0.4 -16.4 1.1 111 0 1 3
0.4 -15.9 1.1 130 0 1 3
0.4 -15 1 141 0 1 3
0.4 -14.6 1 144 0 1 3
0.4 -14.4 0.8 108 0 1 3
0.4 -13.5 -0.2 116 0 1 1
0.4 -13 -0.2 117 0 1 1
0.4 -12.6 -0.2 115 0 1 1
0.4 -12.1 -0.1 122 0 1 1
0.4 -11.6 -0.1 122 0 1 1
0.4 -11.1 -0.1 124 0 1 1
0.4 -10.7 -0.2 126 0 1 1
0.4 -10.2 -0.3 122 0 1 1
0.4 -9.8 -0.4 129 0 1 1
0.4 -9.3 -0.5 125 0 1 1
0.4 -8.9 -0.4 128 0 1 1
0.4 -8.4 -0.4 142 0 1 1
0.4 -7.9 -0.4 138 0 1 1
0.4 -7.4 -0.4 134 0 1 1
0.4 -6.9 -0.3 137 0 1 1
0.4 -6.5 -0.3 139 0 1 1
0.4 -6 -0.3 122 0 1 1
0.4 -5.5 -0.1 136 0 1 1
0.4 -4.9 0 133 0 1 1
0.4 -4.4 0.1 126 0 1 1
0.4 -4 0 125 0 1 1
0.5 -15.5 1 140 0 1 3
0.5 -15.4 1 130 0 1 3
0.5 -15.3 0.9 137 0 1 3
0.5 -14.9 0.8 137 0 1 3
0.5 -14.9 0.9 141 0 1 3
0.5 -14.5 0.8 141 0 1 3
0.5 -14.5 0.9 145 0 1 3
0.5 -14.4 -0.2 111 0 1 1
0.5 -14 -0.2 132 0 1 1
0.5 -3.5 0 121 0 1 1
0.5 -3 0 131 0 1 1
0.6 -15.4 0.9 141 0 1 3
0.6 -15.3 0.8 139 0 1 3
0.6 -15.1 0.8 138 0 1 3
0.6 -14.9 0.8 139 0 1 3
0.6 -14.5 0.7 137 0 1 3
0.7 -16.5 0.9 85 0 1 3
0.7 -14.6 0 90 0 1 3
0.7 -14.5 0.7 106 0 1 3
0.8 -15.9 0.8 141 0 1 3
0.8 -15.4 0.8 139 0 1 3
0.8 -9.8 -0.7 125 0 1 4
0.8 -9.4 -0.8 127 0 1 4
0.8 -8.9 -0.8 128 0 1 4
0.8 -8.4 -0.7 115 0 1 4
0.8 -7.9 -0.7 127 0 1 4
0.8 -7.4 -0.7 130 0 1 4
0.8 -7 -0.7 124 0 1 4
0.9 -14.6 0.4 97 0 1 3
0.9 -14 -0.2 117 0 1 1
0.9 -13.5 -0.2 118 0 1 1
0.9 -13 -0.2 117 0 1 1
0.9 -12.5 -0.2 120 0 1 1
0.9 -12.1 -0.1 114 0 1 1
0.9 -11.6 -0.1 120 0 1 1
0.9 -11.1 -0.2 129 0 1 1
0.9 -10.7 -0.4 131 0 1 1
0.9 -10.3 -0.6 109 0 1 4
0.9 -4.9 -0.1 123 0 1 1
0.9 -4.4 0 130 0 1 1
0.9 -3.9 0 122 0 1 1
1 -16.3 0.8 97 0 1 3
1 -14.7 -0.2 119 0 1 3
1 -14.6 0.2 103 0 1 3
1 -14.6 0.6 134 0 1 3
1 -14.4 -0.2 119 0 1 1
1 -3.5 0 127 0 1 1
1 -3 0 124 0 1 1
1.1 -15.4 0.7 139 0 1 3
1.1 -14.6 0.4 99 0 1 3
1.2 -14.6 0.6 130 0 1 3
1.3 -14.8 -0.1 101 0 1 3
1.3 -14.7 0.2 102 0 1 3
1.3 -11.1 -0.3 127 0 1 1
1.3 -10.7 -0.5 126 0 1 1
1.3 -10.3 -0.7 125 0 1 4
1.3 -9.8 -0.9 125 0 1 4
1.3 -9.4 -1 121 0 1 4
1.3 -8.9 -1 117 0 1 4
1.3 -8.4 -1 114 0 1 4
1.3 -7.9 -1 123 0 1 4
1.3 -7.4 -0.9 115 0 1 4
1.3 -7 -0.9 122 0 1 4
1.4 -16.1 0.5 116 0 1 3
1.4 -14.9 -0.1 104 0 1 1
1.4 -14.7 0.4 95 0 1 3
1.4 -14.4 -0.2 116 0 1 1
1.4 -14 -0.2 118 0 1 1
1.4 -13.5 -0.2 117 0 1 1
1.4 -13 -0.2 112 0 1 1
1.4 -12.5 -0.1 121 0 1 1
1.4 -12 -0.1 117 0 1 1
1.4 -11.6 -0.1 127 0 1 1
1.4 -4.9 -0.2 113 0 1 1
1.4 -4.4 -0.1 120 0 1 1
1.4 -3.9 0 128 0 1 1
1.4 -3.4 0 125 0 1 1
1.5 -15.3 0.4 143 0 1 3
1.5 -14.8 0.3 102 0 1 3
1.6 -14.8 0.3 120 0 1 3
1.7 -14.9 0.1 103 0 1 3
1.7 -14.9 0.2 109 0 1 3
1.7 -8.9 -1.1 112 0 1 4
1.7 -8.4 -1.1 115 0 1 4
1.7 -7.9 -1.1 121 0 1 4
1.7 -7.4 -1.1 123 0 1 4
1.7 -6.9 -1.1 118 0 1 4
1.8 -15.9 0.2 134 0 1 3
1.8 -13.5 -0.1 119 0 1 1
1.8 -13 -0.1 101 0 1 1
1.8 -12.5 -0.1 126 0 1 1
1.8 -12 -0.1 123 0 1 1
1.8 -11.6 -0.1 119 0 1 1
1.8 -11.1 -0.3 125 0 1 1
1.8 -10.7 -0.6 122 0 1 1
1.8 -10.3 -0.8 107 0 1 4
1.8 -9.8 -1 121 0 1 4
1.8 -9.4 -1.1 110 0 1 4
1.9 -15.5 0.2 143 0 1 3
1.9 -15.3 -0.1 125 0 1 1
1.9 -15 0 112 0 1 3
1.9 -15 0.1 115 0 1 3
1.9 -14.9 -0.1 119 0 1 1
1.9 -14.4 -0.1 120 0 1 1
1.9 -14 -0.1 120 0 1 1
1.9 -4.9 -0.3 119 0 1 1
1.9 -4.3 -0.1 120 0 1 1
1.9 -3.9 -0.1 125 0 1 1
1.9 -3.4 -0.1 132 0 1 1
2.1 -19.8 -0.1 89 0 1 1
2.2 -9.8 -1 110 0 1 4
2.2 -9.3 -1.1 101 0 1 4
2.2 -8.8 -1.1 110 0 1 4
2.2 -8.3 -1.1 113 0 1 4
2.2 -7.9 -1.1 115 0 1 4
2.2 -7.4 -1.1 123 0 1 4
2.2 -6.9 -1.1 113 0 1 4
2.3 -14.4 -0.1 119 0 1 1
2.3 -14 -0.1 123 0 1 1
2.3 -13.5 -0.1 118 0 1 1
2.3 -13 -0.1 119 0 1 1
2.3 -12.5 -0.1 124 0 1 1
2.3 -12 -0.1 118 0 1 1
2.3 -11.5 -0.1 117 0 1 1
2.3 -11.1 -0.3 124 0 1 1
2.3 -10.7 -0.5 114 0 1 1
2.3 -10.2 -0.8 105 0 1 4
2.4 -17.2 -0.1 118 0 1 1
2.4 -16.7 -0.1 124 0 1 1
2.4 -16.3 -0.1 130 0 1 1
2.4 -15.8 -0.1 120 0 1 1
2.4 -15.3 -0.1 127 0 1 1
2.4 -14.9 -0.1 118 0 1 1
2.4 -4.8 -0.3 120 0 1 1
2.4 -4.3 -0.1 123 0 1 1
2.4 -3.8 -0.1 127 0 1 1
2.4 -3.4 -0.1 131 0 1 1
2.5 -19.8 0 87 0 1 1
2.5 -19.5 0 120 0 1 1
2.5 -19 -0.1 125 0 1 1
2.5 -18.6 -0.1 119 0 1 1
2.5 -18.1 -0.1 114 0 1 1
2.5 -17.7 -0.1 116 0 1 1
2.7 -10.6 -0.5 113 0 1 1
2.7 -10.2 -0.8 114 0 1 4
2.7 -9.8 -1.1 109 0 1 4
2.7 -9.3 -1.2 113 0 1 4
2.7 -8.8 -1.2 114 0 1 4
2.7 -8.3 -1.2 114 0 1 4
2.7 -7.8 -1.1 115 0 1 4
2.7 -7.3 -1.1 116 0 1 4
2.7 -6.8 -1.1 118 0 1 4
2.8 -15.3 -0.1 123 0 1 1
2.8 -14.9 -0.1 128 0 1 1
2.8 -14.4 -0.1 124 0 1 1
2.8 -14 -0.1 122 0 1 1
2.8 -13.5 -0.1 124 0 1 1
2.8 -13 -0.1 118 0 1 1
2.8 -12.5 -0.1 124 0 1 1
2.8 -12 -0.1 122 0 1 1
2.8 -11.5 -0.1 126 0 1 1
2.8 -11.1 -0.3 128 0 1 1
2.9 -18.1 0 117 0 1 1
2.9 -17.7 -0.1 119 0 1 1
2.9 -17.2 -0.1 128 0 1 1
2.9 -16.7 -0.1 119 0 1 1
2.9 -16.3 -0.1 118 0 1 1
2.9 -15.8 -0.1 125 0 1 1
2.9 -4.8 -0.4 120 0 1 1
2.9 -4.3 -0.2 120 0 1 1
2.9 -3.8 -0.1 126 0 1 1
2.9 -3.3 -0.1 128 0 1 1
3 -19.8 0 97 0 1 1
3 -19.5 0 122 0 1 1
3 -19.1 0 125 0 1 1
3 -18.6 0 117 0 1 1
3.2 -13.5 -0.1 125 0 1 1
3.2 -11 -0.3 106 0 1 1
3.2 -10.6 -0.5 115 0 1 1
3.2 -10.2 -0.8 119 0 1 4
3.2 -9.7 -1.1 111 0 1 4
3.2 -9.3 -1.2 111 0 1 4
3.2 -8.8 -1.2 112 0 1 4
3.2 -8.3 -1.2 113 0 1 4
3.2 -7.8 -1.2 128 0 1 4
3.2 -7.3 -1.2 111 0 1 4
3.2 -6.8 -1.2 117 0 1 4
3.3 -16.7 0 124 0 1 1
3.3 -16.3 0 124 0 1 1
3.3 -15.8 0 124 0 1 1
3.3 -15.3 -0.1 111 0 1 1
3.3 -14.9 -0.1 133 0 1 1
3.3 -14.4 -0.1 124 0 1 1
3.3 -14 -0.1 124 0 1 1
3.3 -13 -0.1 123 0 1 1
3.3 -12.5 -0.1 126 0 1 1
3.3 -12 -0.1 129 0 1 1
3.3 -11.5 -0.1 122 0 1 1
3.4 -19.7 0 106 0 1 1
3.4 -19.5 0 121 0 1 1
3.4 -19.1 0 122 0 1 1
3.4 -18.6 0 125 0 1 1
3.4 -18.1 0 117 0 1 1
3.4 -17.7 0 112 0 1 1
3.4 -17.2 0 128 0 1 1
3.4 -4.8 -0.4 117 0 1 1
3.4 -4.2 -0.2 125 0 1 1
3.4 -3.8 -0.2 128 0 1 1
3.6 -19.7 0 115 0 1 1
3.7 -14.4 0 123 0 1 1
3.7 -13.9 0 122 0 1 1
3.7 -13.5 0 120 0 1 1
3.7 -13 0 123 0 1 1
3.7 -12.5 -0.1 121 0 1 1
3.7 -12 -0.1 128 0 1 1
3.7 -11.5 -0.1 119 0 1 1
3.7 -11 -0.3 132 0 1 1
3.7 -10.6 -0.5 121 0 1 1
3.7 -10.2 -0.8 109 0 1 4
3.7 -9.7 -1.1 114 0 1 4
3.7 -9.2 -1.2 106 0 1 4
3.7 -8.7 -1.2 114 0 1 4
3.7 -8.2 -1.2 116 0 1 4
3.7 -7.7 -1.2 94 0 1 4
3.7 -7.2 -1.2 120 0 1 4
3.7 -6.7 -1.2 115 0 1 4
3.8 -18.1 0 123 0 1 1
3.8 -17.7 0 124 0 1 1
3.8 -17.2 0 118 0 1 1
3.8 -16.7 0 123 0 1 1
3.8 -16.3 0 116 0 1 1
3.8 -15.8 0 125 0 1 1
3.8 -15.3 0 123 0 1 1
3.8 -14.9 0 117 0 1 1
3.9 -19.7 0 114 0 1 1
3.9 -19.5 0 113 0 1 1
3.9 -19.1 0 118 0 1 1
3.9 -18.6 0 122 0 1 1
3.9 -4.7 -0.4 115 0 1 1
3.9 -4.2 -0.2 122 0 1 1
4.2 -19.6 0 105 0 1 1
4.2 -15.8 0 109 0 1 1
4.2 -15.4 0 120 0 1 1
4.2 -14.9 0 125 0 1 1
4.2 -14.4 0 123 0 1 1
4.2 -13.9 0 124 0 1 1
4.2 -13.5 0 121 0 1 1
4.2 -13 0 128 0 1 1
4.2 -12.5 0 124 0 1 1
4.2 -12 -0.1 114 0 1 1
4.2 -11.5 -0.1 128 0 1 1
4.2 -11 -0.3 127 0 1 1
4.2 -10.6 -0.5 124 0 1 1
4.2 -10.1 -0.8 122 0 1 4
4.2 -9.7 -1.1 121 0 1 4
4.2 -9.2 -1.2 110 0 1 4
4.2 -8.7 -1.2 119 0 1 4
4.2 -8.2 -1.2 110 0 1 4
4.2 -7.7 -1.2 84 0 1 4
4.2 -7.2 -1.3 105 0 1 4
4.2 -6.7 -1.2 115 0 1 4
4.2 -6.2 -1.1 124 0 1 4
4.3 -19.5 0 104 0 1 1
4.3 -19.1 0 120 0 1 1
4.3 -18.6 0 125 0 1 1
4.3 -18.2 0 122 0 1 1
4.3 -17.7 0 122 0 1 1
4.3 -17.2 0 120 0 1 1
4.3 -16.8 0 122 0 1 1
4.3 -16.3 0 123 0 1 1
4.3 -5.2 -0.6 107 0 1 1
4.4 -4.7 -0.4 106 0 1 1
4.7 -17.7 0 116 0 1 1
4.7 -17.2 0 105 0 1 1
4.7 -16.8 0 122 0 1 1
4.7 -16.3 0 113 0 1 1
4.7 -15.8 0 119 0 1 1
4.7 -15.4 0 122 0 1 1
4.7 -14.9 0 121 0 1 1
4.7 -14.4 0 119 0 1 1
4.7 -13.9 0 112 0 1 1
4.7 -13.5 0 123 0 1 1
4.7 -13 0 127 0 1 1
4.7 -12.5 0 123 0 1 1
4.7 -12 0 112 0 1 1
4.7 -11.5 -0.1 128 0 1 1
4.7 -11 -0.2 123 0 1 1
4.7 -10.5 -0.5 124 0 1 1
4.7 -10.1 -0.8 119 0 1 4
4.7 -9.7 -1.1 119 0 1 4
4.7 -9.2 -1.2 115 0 1 4
4.7 -8.7 -1.2 113 0 1 4
4.7 -8.2 -1.3 118 0 1 4
4.7 -7.7 -1.3 110 0 1 4
4.7 -7.2 -1.3 108 0 1 4
4.7 -6.6 -1.2 112 0 1 4
4.8 -19.4 0 96 0 1 1
4.8 -19.1 0 121 0 1 1
4.8 -18.6 0 118 0 1 1
4.8 -18.2 0 122 0 1 1
4.8 -14.6 0.1 102 0 1 2
4.8 -14.5 0.1 81 0 1 2
4.8 -6.1 -1 104 0 1 4
4.8 -5.6 -0.7 104 0 1 4
4.8 -5.1 -0.5 116 0 1 1
4.9 -14.7 0.2 95 0 1 2
5 -19.2 0 122 0 1 1
5 -14.7 0.2 61 0 1 2
5 -14.7 0.3 96 0 1 2
5 -14.5 0.2 80 0 1 2
5 -14.4 0.1 58 0 1 2
5 -14.3 0.1 77 0 1 2
5.1 -14.7 0.4 107 0 1 2
5.1 -14.3 0.1 71 0 1 2
5.1 -14.3 0.2 119 0 1 2
5.1 -13.9 0 120 0 1 1
5.1 -13.5 0 126 0 1 1
5.1 -13 0 127 0 1 1
5.1 -12.5 0 122 0 1 1
5.1 -11.9 0 130 0 1 1
5.1 -10.1 -0.8 124 0 1 4
5.1 -9.6 -1.1 117 0 1 4
5.1 -9.1 -1.2 110 0 1 4
5.2 -19.2 0 123 0 1 1
5.2 -19.1 0 122 0 1 1
5.2 -18.7 0 128 0 1 1
5.2 -18.2 0 125 0 1 1
5.2 -17.7 0 125 0 1 1
5.2 -17.2 0 128 0 1 1
5.2 -16.8 0 134 0 1 1
5.2 -16.3 0 125 0 1 1
5.2 -15.8 0 121 0 1 1
5.2 -14.7 0.4 82 0 1 2
5.2 -14.6 0.3 80 0 1 2
5.2 -14.5 0.3 110 0 1 2
5.2 -14.3 0.1 140 0 1 2
5.2 -14.2 0 129 0 1 2
5.2 -14.2 0.1 144 0 1 2
5.2 -11.4 -0.1 126 0 1 1
5.2 -11 -0.2 125 0 1 1
5.2 -10.5 -0.5 121 0 1 1
5.2 -8.6 -1.3 114 0 1 4
5.2 -8.1 -1.3 117 0 1 4
5.2 -7.6 -1.3 109 0 1 4
5.2 -7.1 -1.3 114 0 1 4
5.3 -14.6 0.3 135 0 1 2
5.3 -14.4 0 124 0 1 2
5.3 -14.4 0.1 140 0 1 2
5.4 -14.7 0.1 139 0 1 2
5.4 -14.6 0.2 126 0 1 2
5.4 -14.6 0.3 129 0 1 2
5.4 -14.5 0.2 139 0 1 2
5.6 -19.1 0 85 0 1 1
5.6 -17.2 0 116 0 1 1
5.6 -16.8 0 119 0 1 1
5.6 -14.9 0.1 124 0 1 1
5.6 -14.4 0.1 126 0 1 1
5.6 -13.9 0.1 126 0 1 1
5.6 -13.5 0.1 125 0 1 1
5.6 -13 0 128 0 1 1
5.6 -12.4 0 126 0 1 1
5.6 -11.9 0 136 0 1 1
5.6 -11.4 -0.1 130 0 1 1
5.6 -10.9 -0.2 127 0 1 1
5.6 -10.5 -0.5 119 0 1 1
5.6 -10 -0.8 110 0 1 4
5.6 -9.6 -1.1 89 0 1 4
5.6 -9.1 -1.2 98 0 1 4
5.6 -8.6 -1.2 100 0 1 4
5.7 -19.1 0 85 0 1 1
5.7 -18.7 0 119 0 1 1
5.7 -18.2 0 122 0 1 1
5.7 -17.7 0 113 0 1 1
5.7 -8.1 -1.2 103 0 1 4
5.7 -7.6 -1.2 107 0 1 4
5.7 -7 -1.3 108 0 1 4
5.7 -6.5 -1.2 101 0 1 4
6.1 -19 0 84 0 1 1
6.1 -18.7 0 125 0 1 1
6.1 -18.2 0 122 0 1 1
6.1 -17.7 0 123 0 1 1
6.1 -16.3 0.1 122 0 1 1
6.1 -15.8 0.1 126 0 1 1
6.1 -15.4 0.1 124 0 1 1
6.1 -14.9 0.1 124 0 1 1
6.1 -14.4 0.1 124 0 1 1
6.1 -13.9 0.1 132 0 1 1
6.1 -13.5 0.1 127 0 1 1
6.1 -13 0.1 128 0 1 1
6.1 -12.4 0 123 0 1 1
6.1 -11.9 0 99 0 1 1
6.1 -11.4 0 136 0 1 1
6.1 -10.9 -0.2 120 0 1 1
6.1 -10.4 -0.4 104 0 1 1
6.1 -10 -0.7 93 0 1 4
6.1 -9.5 -0.9 85 0 1 4
6.1 -9 -0.9 91 0 1 4
6.1 -8.5 -1 98 0 1 4
6.2 -8 -1 66 0 1 4
6.2 -7.5 -1 99 0 1 4
6.2 -6.9 -1.1 90 0 1 4
6.2 -6.4 -1 95 0 1 4
6.5 -15.8 0.1 127 0 1 1
6.5 -15.4 0.1 127 0 1 1
6.5 -14.9 0.1 120 0 1 1
6.5 -14.4 0.1 135 0 1 1
6.5 -13.9 0.1 116 0 1 1
6.5 -13.5 0.1 130 0 1 1
6.5 -12.9 0.1 128 0 1 1
6.6 -18.8 0 83 0 1 1
6.6 -18.7 0.1 124 0 1 1
6.6 -18.2 0.1 126 0 1 1
6.6 -17.7 0.1 124 0 1 1
6.6 -17.3 0.1 123 0 1 1
6.6 -16.8 0.1 121 0 1 1
6.6 -16.3 0.1 122 0 1 1
6.6 -12.4 0 128 0 1 1
6.6 -11.9 0 124 0 1 1
6.6 -11.4 0 123 0 1 1
6.6 -10.9 -0.1 127 0 1 1
6.6 -10.4 -0.3 113 0 1 1
6.6 -9.9 -0.5 88 0 1 1
6.6 -9.4 -0.6 90 0 1 4
6.6 -8.9 -0.7 84 0 1 4
6.6 -8.4 -0.7 90 0 1 4
6.7 -7.9 -0.7 81 0 1 4
6.7 -7.4 -0.8 79 0 1 4
6.7 -6.8 -0.8 82 0 1 4
6.8 -18.7 0.1 114 0 1 1
7 -18.7 0.1 107 0 1 1
7 -18.2 0.1 127 0 1 1
7 -17.7 0.1 130 0 1 1
7 -17.3 0.1 118 0 1 1
7 -16.8 0.1 129 0 1 1
7 -16.3 0.1 130 0 1 1
7 -15.8 0.1 134 0 1 1
7 -15.4 0.1 131 0 1 1
7 -14.9 0.1 132 0 1 1
7 -14.4 0.1 122 0 1 1
7 -13.9 0.1 124 0 1 1
7 -13.5 0.1 127 0 1 1
7 -13 0.1 130 0 1 1
7 -12.4 0.1 128 0 1 1
7 -11.9 0 130 0 1 1
7 -11.4 0 128 0 1 1
7 -10.9 -0.1 127 0 1 1
7 -10.4 -0.1 126 0 1 1
7 -9.9 -0.3 100 0 1 1
7.1 -18.7 0.1 108 0 1 1
7.1 -9.4 -0.4 99 0 1 1
7.1 -8.9 -0.4 91 0 1 1
7.1 -8.4 -0.5 82 0 1 1
7.1 -7.9 -0.5 102 0 1 1
7.1 -7.3 -0.5 106 0 1 1
7.3 -18.6 0.1 110 0 1 1
7.4 -16.3 0.1 131 0 1 1
7.4 -15.8 0.1 112 0 1 1
7.4 -15.4 0.1 123 0 1 1
7.4 -14.9 0.1 115 0 1 1
7.4 -14.4 0.1 117 0 1 1
7.4 -13.9 0.1 130 0 1 1
7.4 -13.5 0.1 130 0 1 1
7.4 -13 0.1 129 0 1 1
7.4 -12.4 0.1 130 0 1 1
7.5 -18.6 0.1 108 0 1 1
7.5 -18.4 0.1 127 0 1 1
7.5 -18.2 0.1 129 0 1 1
7.5 -17.7 0.1 126 0 1 1
7.5 -17.3 0.1 130 0 1 1
7.5 -16.8 0.1 125 0 1 1
7.5 -11.9 0 119 0 1 1
7.5 -11.4 0 124 0 1 1
7.5 -10.9 0 127 0 1 1
7.5 -10.4 -0.1 125 0 1 1
7.5 -9.9 -0.1 123 0 1 1
7.5 -9.4 -0.2 120 0 1 1
7.5 -8.9 -0.2 123 0 1 1
7.5 -8.4 -0.3 118 0 1 1
7.6 -18.5 0.1 102 0 1 1
7.6 -7.9 -0.3 114 0 1 1
7.8 -18.4 0.1 93 0 1 1
7.9 -18.4 0.1 83 0 1 1
7.9 -18.2 0.1 118 0 1 1
7.9 -17.7 0.1 116 0 1 1
7.9 -17.3 0.1 126 0 1 1
7.9 -16.8 0.1 128 0 1 1
7.9 -16.3 0.1 125 0 1 1
7.9 -15.8 0.1 102 0 1 1
7.9 -15.4 0.1 119 0 1 1
7.9 -14.9 0.1 128 0 1 1
7.9 -14.4 0.1 123 0 1 1
7.9 -13.9 0.1 125 0 1 1
7.9 -13.5 0.1 133 0 1 1
7.9 -13 0.1 126 0 1 1
7.9 -12.5 0.1 128 0 1 1
7.9 -12 0 128 0 1 1
7.9 -11.4 0 129 0 1 1
7.9 -10.9 0 126 0 1 1
7.9 -10.4 -0.1 126 0 1 1
8 -9.9 -0.1 132 0 1 1
8 -9.4 -0.1 123 0 1 1
8 -8.9 -0.2 128 0 1 1
8 -8.4 -0.2 116 0 1 1
8.2 -18.2 0.1 110 0 1 1
8.3 -18.2 0.1 104 0 1 1
8.3 -16.8 0.1 130 0 1 1
8.3 -16.3 0.1 131 0 1 1
8.3 -15.8 0.1 130 0 1 1
8.3 -15.4 0.1 109 0 1 1
8.3 -14.9 0.1 127 0 1 1
8.3 -14.4 0.1 114 0 1 1
8.3 -14 0.1 129 0 1 1
8.3 -13.5 0.2 131 0 1 1
8.3 -13 0.1 137 0 1 1
8.3 -12.5 0.1 124 0 1 1
8.3 -12 0 130 0 1 1
8.4 -18.1 0.1 98 0 1 1
8.4 -17.7 0.1 128 0 1 1
8.4 -17.3 0.1 126 0 1 1
8.4 -11.5 0 126 0 1 1
8.4 -11 0 135 0 1 1
8.4 -10.5 -0.1 131 0 1 1
8.4 -10 -0.1 129 0 1 1
8.4 -9.4 -0.1 131 0 1 1
8.4 -8.9 -0.2 105 0 1 1
8.4 -8.4 -0.2 84 0 1 1
8.6 -17.9 0.1 123 0 1 1
8.7 -14 0.2 133 0 1 1
8.7 -13.5 0.2 124 0 1 1
8.8 -17.9 0.1 113 0 1 1
8.8 -17.8 0.1 111 0 1 1
8.8 -17.7 0.1 126 0 1 1
8.8 -17.3 0.1 124 0 1 1
8.8 -16.8 0.1 127 0 1 1
8.8 -16.3 0.1 129 0 1 1
8.8 -15.8 0.1 125 0 1 1
8.8 -15.4 0.1 130 0 1 1
8.8 -14.9 0.1 132 0 1 1
8.8 -14.4 0.1 120 0 1 1
8.8 -13 0.1 130 0 1 1
8.8 -12.5 0.1 129 0 1 1
8.8 -12 0.1 125 0 1 1
8.8 -11.5 0 127 0 1 1
8.8 -11 0 124 0 1 1
8.8 -10.5 0 138 0 1 1
8.8 -10 -0.1 130 0 1 1
8.8 -9.5 -0.1 128 0 1 1
8.9 -9 -0.1 112 0 1 1
9.1 -17.7 0.1 91 0 1 1
9.2 -17.7 0.1 85 0 1 1
9.2 -17.3 0.1 126 0 1 1
9.2 -16.8 0.1 128 0 1 1
9.2 -16.3 0.1 127 0 1 1
9.2 -15.8 0.1 127 0 1 1
9.2 -15.4 0.1 120 0 1 1
9.2 -14.9 0.2 129 0 1 1
9.2 -14.4 0.2 129 0 1 1
9.2 -14 0.2 126 0 1 1
9.2 -13.5 0.2 131 0 1 1
9.2 -13 0.1 139 0 1 1
9.2 -12.5 0.1 127 0 1 1
9.2 -12 0.1 134 0 1 1
9.2 -11.5 0 132 0 1 1
9.2 -11 0 134 0 1 1
9.3 -17.6 0.1 121 0 1 1
9.3 -10.5 0 133 0 1 1
9.3 -10 -0.1 131 0 1 1
9.3 -9.5 -0.1 128 0 1 1
9.5 -17.4 0.1 130 0 1 1
9.6 -14.4 0.2 124 0 1 1
9.6 -14 0.2 131 0 1 1
9.6 -13.5 0.2 136 0 1 1
9.6 -13 0.1 134 0 1 1
9.7 -17.4 0.1 91 0 1 1
9.7 -17.3 0.1 130 0 1 1
9.7 -16.8 0.1 127 0 1 1
9.7 -16.3 0.1 124 0 1 1
9.7 -15.9 0.1 127 0 1 1
9.7 -15.4 0.2 128 0 1 1
9.7 -14.9 0.2 131 0 1 1
9.7 -12.5 0.1 129 0 1 1
9.7 -12 0.1 130 0 1 1
9.7 -11.5 0 129 0 1 1
9.7 -11 0 138 0 1 1
9.7 -10.5 0 125 0 1 1
9.7 -10 -0.1 131 0 1 1
10 -17.3 0.1 116 0 1 1
10.1 -17.2 0.1 106 0 1 1
10.1 -16.8 0.1 125 0 1 1
10.1 -16.3 0.1 131 0 1 1
10.1 -15.9 0.2 128 0 1 1
10.1 -15.4 0.2 127 0 1 1
10.1 -14.9 0.2 135 0 1 1
10.1 -14.4 0.2 134 0 1 1
10.1 -14 0.2 133 0 1 1
10.1 -13.5 0.2 126 0 1 1
10.1 -13 0.2 129 0 1 1
10.1 -12.5 0.1 131 0 1 1
10.1 -12 0.1 130 0 1 1
10.1 -11.5 0.1 133 0 1 1
10.1 -11 0 138 0 1 1
10.1 -10.6 0 133 0 1 1
10.4 -16.9 0.1 124 0 1 1
10.5 -14.9 0.2 128 0 1 1
10.5 -14.4 0.2 131 0 1 1
10.5 -14 0.2 128 0 1 1
10.5 -13.5 0.2 132 0 1 1
10.5 -13 0.2 139 0 1 1
10.5 -12.5 0.1 130 0 1 1
10.5 -12 0.1 131 0 1 1
10.6 -16.9 0.1 112 0 1 1
10.6 -16.8 0.1 124 0 1 1
10.6 -16.3 0.2 131 0 1 1
10.6 -15.9 0.2 127 0 1 1
10.6 -15.4 0.2 121 0 1 1
10.6 -11.6 0.1 134 0 1 1
10.6 -11.1 0 129 0 1 1
10.6 -10.6 0 126 0 1 1
10.8 -16.8 0.2 92 0 1 1
10.9 -16.7 0.2 85 0 1 1
11 -16.7 0.2 124 0 1 1
11 -16.5 0.2 132 0 1 1
11 -16.3 0.2 129 0 1 1
11 -15.9 0.2 130 0 1 1
11 -15.4 0.2 129 0 1 1
11 -14.9 0.2 133 0 1 1
11 -14.4 0.2 135 0 1 1
11 -14 0.2 131 0 1 1
11 -13.5 0.2 133 0 1 1
11 -13 0.2 136 0 1 1
11 -12.5 0.1 138 0 1 1
11 -12.1 0.1 122 0 1 1
11 -11.6 0.1 135 0 1 1
11 -11.1 0 132 0 1 1
11.1 -16.7 0.2 123 0 1 1
11.3 -16.5 0.2 86 0 1 1
11.4 -15.4 0.2 128 0 1 1
11.4 -14.9 0.2 130 0 1 1
11.4 -14.4 0.2 132 0 1 1
11.4 -14 0.2 128 0 1 1
11.4 -13.5 0.2 130 0 1 1
11.4 -13 0.2 115 0 1 1
11.4 -12.5 0.1 132 0 1 1
11.4 -12.1 0.1 120 0 1 1
11.4 -11.6 0.1 133 0 1 1
11.5 -16.3 0.2 87 0 1 1
11.5 -15.9 0.2 130 0 1 1
11.7 -16.2 0.2 111 0 1 1
11.9 -16 0.2 130 0 1 1
11.9 -15.9 0.2 122 0 1 1
11.9 -15.4 0.2 133 0 1 1
11.9 -14.9 0.2 132 0 1 1
11.9 -14.5 0.2 136 0 1 1
11.9 -14 0.2 132 0 1 1
11.9 -13.5 0.2 132 0 1 1
11.9 -13 0.2 129 0 1 1
11.9 -12.6 0.2 134 0 1 1
11.9 -12.1 0.1 126 0 1 1
12.1 -15.9 0.2 101 0 1 1
12.2 -15.7 0.2 127 0 1 1
12.3 -15.6 0.2 91 0 1 1
12.3 -15.4 0.2 134 0 1 1
12.3 -14.9 0.2 133 0 1 1
12.3 -14.5 0.2 110 0 1 1
12.3 -14 0.2 130 0 1 1
12.3 -13.5 0.2 133 0 1 1
12.3 -13 0.2 136 0 1 1
12.3 -12.6 0.2 135 0 1 1
12.6 -15.4 0.2 93 0 1 1
12.7 -15.3 0.2 126 0 1 1
12.7 -13.5 0.2 135 0 1 1
12.7 -13 0.2 135 0 1 1
12.8 -15.3 0.2 113 0 1 1
12.8 -14.9 0.2 137 0 1 1
12.8 -14.5 0.2 125 0 1 1
12.8 -14 0.2 144 0 1 1
13.2 -14.9 0.2 125 0 1 1
13.2 -14 0.2 121 0 1 1
13.2 -13.5 0.2 132 0 1 1
13.3 -14.9 0.2 107 0 1 1
13.3 -14.5 0.2 134 0 1 1
13.5 -14.6 0.2 117 0 1 1
13.7 -14 0.2 141 0 1 1
13.8 -14.4 0.2 116 0 1 1
13.9 -14.3 0.2 130 0 1 1
14.1 -14.2 0.2 97 0 1 1
