-2.2 13.7 1.9 111 0 1 5
-2.2 13.9 2.1 115 0 1 5
-2.2 14.1 2.3 115 0 1 5
-2.2 14.4 2.4 122 0 1 5
-2.2 14.6 2.5 124 0 1 5
-2.2 14.8 2.6 105 0 1 5
-2.2 15 2.6 101 0 1 5
-2.2 15.2 2.7 96 0 1 5
-1.7 10.6 1.1 136 0 1 5
-1.7 10.9 1.1 138 0 1 5
-1.7 11.1 1.2 140 0 1 5
-1.7 11.3 1.2 138 0 1 5
-1.7 11.5 1.2 131 0 1 5
-1.7 11.7 1.3 129 0 1 5
-1.7 11.9 1.3 124 0 1 5
-1.7 12.2 1.4 112 0 1 5
-1.7 12.4 1.4 131 0 1 5
-1.7 12.6 1.4 111 0 1 5
-1.7 12.8 1.4 116 0 1 5
-1.7 13 1.4 118 0 1 5
-1.7 13.3 1.6 113 0 1 5
-1.7 13.5 1.7 113 0 1 5
-1.7 13.7 1.9 107 0 1 5
-1.7 13.9 2.1 116 0 1 5
-1.7 14.1 2.3 123 0 1 5
-1.7 14.4 2.5 120 0 1 5
-1.7 14.6 2.5 142 0 1 5
-1.7 14.8 2.6 116 0 1 5
-1.7 15.2 2.7 107 0 1 5
-1.4 8.4 0.2 120 0 1 1
-1.3 7.9 0.2 122 0 1 1
-1.3 8.7 0.3 95 0 1 5
-1.3 8.9 0.5 120 0 1 5
-1.3 9.1 0.7 129 0 1 5
-1.3 9.3 0.8 130 0 1 5
-1.3 9.5 0.9 137 0 1 5
-1.3 9.8 1 138 0 1 5
-1.3 10 1.1 135 0 1 5
-1.3 10.2 1.1 136 0 1 5
-1.3 10.4 1.1 129 0 1 5
-1.3 10.6 1.1 144 0 1 5
-1.3 10.9 1 131 0 1 5
-1.3 11.1 1.1 131 0 1 5
-1.3 11.3 1.1 125 0 1 5
-1.3 11.5 1.2 129 0 1 5
-1.3 11.7 1.3 111 0 1 5
-1.3 11.9 1.4 113 0 1 5
-1.3 12.2 1.4 125 0 1 5
-1.3 12.4 1.5 126 0 1 5
-1.3 12.6 1.5 113 0 1 5
-1.3 12.8 1.6 112 0 1 5
-1.3 13 1.6 98 0 1 5
-1.3 13.3 1.7 91 0 1 5
-1.3 13.5 1.8 104 0 1 5
-1.3 13.7 2 110 0 1 5
-1.3 13.9 2.1 120 0 1 5
-1.3 14.1 2.3 118 0 1 5
-1.3 14.4 2.5 131 0 1 5
-1.3 14.6 2.6 99 0 1 5
-1.3 14.8 2.6 91 0 1 5
-0.9 8.7 0.3 118 0 1 5
-0.9 8.9 0.5 121 0 1 5
-0.9 9.1 0.6 123 0 1 5
-0.9 9.3 0.8 133 0 1 5
-0.9 9.5 0.9 132 0 1 5
-0.9 9.8 0.9 137 0 1 5
-0.9 10 1 140 0 1 5
-0.9 10.2 1 144 0 1 5
-0.9 10.4 1 137 0 1 5
-0.9 10.6 1 140 0 1 5
-0.9 10.9 1 136 0 1 5
-0.9 11.1 1 134 0 1 5
-0.9 11.3 1.1 132 0 1 5
-0.9 11.5 1.2 123 0 1 5
-0.9 11.7 1.3 117 0 1 5
-0.9 11.9 1.4 117 0 1 5
-0.9 12.2 1.5 111 0 1 5
-0.9 12.4 1.6 113 0 1 5
-0.9 12.6 1.7 109 0 1 5
-0.9 12.8 1.7 108 0 1 5
-0.9 13 1.8 99 0 1 5
-0.9 13.3 1.8 104 0 1 5
-0.9 13.5 1.9 103 0 1 5
-0.9 13.7 2 111 0 1 5
-0.9 13.9 2.2 109 0 1 5
-0.9 14.1 2.3 112 0 1 5
-0.9 14.4 2.5 124 0 1 5
-0.9 14.6 2.6 126 0 1 5
-0.9 14.8 2.6 132 0 1 5
-0.8 4.4 0.1 114 0 1 1
-0.8 4.9 0.2 119 0 1 1
-0.8 5.3 0.2 120 0 1 1
-0.8 5.8 0.2 121 0 1 1
-0.8 6.3 0.2 122 0 1 1
-0.8 6.8 0.2 119 0 1 1
-0.8 7.3 0.2 118 0 1 1
-0.8 7.8 0.2 129 0 1 1
-0.8 8.4 0.2 118 0 1 1
-0.6 4.2 0.2 67 0 1 2
-0.5 4.1 0.3 87 0 1 2
-0.5 4.2 0.3 91 0 1 2
-0.4 3.9 0.1 49 0 1 2
-0.4 4 0.3 88 0 1 2
-0.4 4 0.4 66 0 1 2
-0.4 4.1 0.4 103 0 1 2
-0.4 8.9 0.4 125 0 1 5
-0.4 9.1 0.6 133 0 1 5
-0.4 9.3 0.7 135 0 1 5
-0.4 9.5 0.8 130 0 1 5
-0.4 9.8 0.8 138 0 1 5
-0.4 10 0.9 138 0 1 5
-0.4 10.2 0.9 136 0 1 5
-0.4 10.4 0.9 143 0 1 5
-0.4 10.6 0.9 135 0 1 5
-0.4 10.9 0.9 142 0 1 5
-0.4 11.1 1 121 0 1 5
-0.4 11.3 1.1 126 0 1 5
-0.4 11.5 1.2 122 0 1 5
-0.4 11.7 1.4 116 0 1 5
-0.4 11.9 1.5 115 0 1 5
-0.4 12.2 1.6 112 0 1 5
-0.4 12.4 1.7 106 0 1 5
-0.4 12.6 1.8 98 0 1 5
-0.4 12.8 1.9 99 0 1 5
-0.4 13 2 100 0 1 5
-0.4 13.3 2 90 0 1 5
-0.4 13.5 2.1 98 0 1 5
-0.4 13.7 2.2 101 0 1 5
-0.4 13.9 2.3 110 0 1 5
-0.4 14.1 2.4 118 0 1 5
-0.4 14.4 2.5 120 0 1 5
-0.4 14.6 2.6 128 0 1 5
-0.4 14.8 2.6 112 0 1 5
-0.3 3.5 0.1 117 0 1 1
-0.3 4 0.4 107 0 1 2
-0.3 4.1 0.4 120 0 1 2
-0.3 4.9 0.2 118 0 1 1
-0.3 5.3 0.2 112 0 1 1
-0.3 5.8 0.2 114 0 1 1
-0.3 6.2 0.3 122 0 1 1
-0.3 6.8 0.3 118 0 1 1
-0.3 7.3 0.2 121 0 1 1
-0.3 7.8 0.2 126 0 1 1
-0.3 8.4 0.2 120 0 1 1
-0.2 4 0.3 82 0 1 2
-0.2 4.1 0.4 127 0 1 2
-0.2 4.2 0.4 131 0 1 2
-0.2 4.3 0.4 129 0 1 2
-0.1 4 0.2 104 0 1 2
-0.1 4 0.3 129 0 1 2
-0.1 4.1 0.2 141 0 1 2
-0.1 4.1 0.4 124 0 1 2
0 8.9 0.4 128 0 1 5
0 9.1 0.5 141 0 1 5
0 9.3 0.6 131 0 1 5
0 9.5 0.7 141 0 1 5
0 9.8 0.7 143 0 1 5
0 10 0.8 128 0 1 5
0 10.2 0.8 137 0 1 5
0 10.4 0.8 139 0 1 5
0 10.6 0.8 133 0 1 5
0 10.9 0.8 133 0 1 5
0 11.1 0.9 127 0 1 5
0 11.3 1.1 126 0 1 5
0 11.5 1.2 118 0 1 5
0 11.7 1.4 116 0 1 5
0 11.9 1.6 107 0 1 5
0 12.2 1.7 120 0 1 5
0 12.4 1.9 103 0 1 5
0 12.6 2 108 0 1 5
0 12.8 2.1 105 0 1 5
0 13 2.2 107 0 1 5
0 13.3 2.2 103 0 1 5
0 13.5 2.3 104 0 1 5
0 13.7 2.4 114 0 1 5
0 13.9 2.5 110 0 1 5
0 14.1 2.5 122 0 1 5
0 14.4 2.6 129 0 1 5
0 14.6 2.6 129 0 1 5
0 14.8 2.6 97 0 1 5
0.2 3.5 0.2 123 0 1 1
0.2 3.9 0.2 121 0 1 1
0.2 4.4 0.2 125 0 1 1
0.2 4.9 0.2 128 0 1 1
0.2 5.3 0.2 125 0 1 1
0.2 5.8 0.3 125 0 1 1
0.2 6.2 0.3 126 0 1 1
0.2 6.7 0.3 107 0 1 1
0.2 7.3 0.3 123 0 1 1
0.2 7.8 0.3 125 0 1 1
0.2 8.3 0.3 125 0 1 1
0.5 9.1 0.4 125 0 1 5
0.5 9.3 0.5 137 0 1 5
0.5 9.5 0.6 138 0 1 5
0.5 9.8 0.6 136 0 1 5
0.5 10 0.7 139 0 1 5
0.5 10.2 0.7 146 0 1 5
0.5 10.4 0.7 146 0 1 5
0.5 10.6 0.7 135 0 1 5
0.5 10.9 0.8 125 0 1 5
0.5 11.1 0.9 132 0 1 5
0.5 11.3 1.1 130 0 1 5
0.5 11.5 1.2 115 0 1 5
0.5 11.7 1.4 108 0 1 5
0.5 11.9 1.6 114 0 1 5
0.5 12.2 1.8 93 0 1 5
0.5 12.4 2 107 0 1 5
0.5 12.6 2.1 106 0 1 5
0.5 12.8 2.2 106 0 1 5
0.5 13 2.3 96 0 1 5
0.5 13.3 2.4 112 0 1 5
0.5 13.5 2.5 103 0 1 5
0.5 13.7 2.5 119 0 1 5
0.5 13.9 2.6 124 0 1 5
0.5 14.1 2.6 123 0 1 5
0.6 3.1 0.1 125 0 1 1
0.6 8.4 0.3 131 0 1 1
0.6 8.9 0.3 126 0 1 1
0.7 3.5 0.1 125 0 1 1
0.7 4 0.1 125 0 1 1
0.7 4.4 0.2 125 0 1 1
0.7 4.9 0.2 130 0 1 1
0.7 5.3 0.2 129 0 1 1
0.7 5.8 0.2 134 0 1 1
0.7 6.2 0.3 127 0 1 1
0.7 6.8 0.3 128 0 1 1
0.7 7.3 0.3 133 0 1 1
0.7 7.8 0.3 130 0 1 1
0.9 9.1 0.3 147 0 1 5
0.9 9.3 0.4 143 0 1 5
0.9 9.5 0.5 137 0 1 5
0.9 9.8 0.5 134 0 1 5
0.9 10 0.6 140 0 1 5
0.9 10.2 0.6 141 0 1 5
0.9 10.4 0.6 139 0 1 5
0.9 10.6 0.7 135 0 1 5
0.9 10.9 0.7 131 0 1 5
0.9 11.1 0.9 123 0 1 5
0.9 11.3 1 107 0 1 5
0.9 11.5 1.3 117 0 1 5
0.9 11.7 1.5 109 0 1 5
0.9 11.9 1.7 103 0 1 5
0.9 12.2 1.9 106 0 1 5
0.9 12.4 2.1 109 0 1 5
0.9 12.6 2.2 109 0 1 5
0.9 12.8 2.3 109 0 1 5
0.9 13 2.4 116 0 1 5
0.9 13.3 2.5 116 0 1 5
0.9 13.5 2.6 125 0 1 5
0.9 13.7 2.6 119 0 1 5
0.9 13.9 2.7 122 0 1 5
1.1 2.6 0.1 128 0 1 1
1.1 3.1 0.1 126 0 1 1
1.1 3.5 0.1 125 0 1 1
1.1 4 0.1 125 0 1 1
1.1 4.4 0.1 125 0 1 1
1.1 4.9 0.2 128 0 1 1
1.1 5.4 0.2 120 0 1 1
1.1 5.8 0.2 120 0 1 1
1.1 6.3 0.2 127 0 1 1
1.1 6.8 0.2 127 0 1 1
1.1 7.3 0.2 134 0 1 1
1.1 7.8 0.2 130 0 1 1
1.1 8.4 0.2 120 0 1 1
1.1 8.9 0.2 121 0 1 1
1.3 9.3 0.2 141 0 1 5
1.3 9.5 0.3 128 0 1 5
1.3 9.8 0.4 143 0 1 5
1.3 10 0.4 145 0 1 5
1.3 10.2 0.5 135 0 1 5
1.3 10.4 0.5 136 0 1 5
1.3 10.6 0.6 130 0 1 5
1.3 10.9 0.7 124 0 1 5
1.3 11.1 0.9 118 0 1 5
1.3 11.3 1.1 100 0 1 5
1.3 11.5 1.3 107 0 1 5
1.3 11.7 1.6 99 0 1 5
1.3 11.9 1.8 108 0 1 5
1.3 12.2 2 101 0 1 5
1.3 12.4 2.2 111 0 1 5
1.3 12.6 2.4 104 0 1 5
1.3 12.8 2.5 110 0 1 5
1.3 13 2.6 116 0 1 5
1.3 13.3 2.6 125 0 1 5
1.3 13.5 2.7 88 0 1 5
1.6 2.6 0 130 0 1 1
1.6 3.1 0.1 129 0 1 1
1.6 3.6 0.1 127 0 1 1
1.6 4 0.1 128 0 1 1
1.6 4.5 0.1 126 0 1 1
1.6 4.9 0.1 130 0 1 1
1.6 5.4 0.2 131 0 1 1
1.6 5.8 0.2 129 0 1 1
1.6 6.3 0.2 129 0 1 1
1.6 6.8 0.2 125 0 1 1
1.6 7.3 0.2 130 0 1 1
1.6 7.9 0.2 128 0 1 1
1.6 8.4 0.2 123 0 1 1
1.6 8.9 0.2 130 0 1 1
1.6 9.4 0.2 122 0 1 1
1.8 9.8 0.2 141 0 1 5
1.8 10 0.3 144 0 1 5
1.8 10.2 0.4 145 0 1 5
1.8 10.4 0.5 139 0 1 5
1.8 10.6 0.6 132 0 1 5
1.8 10.9 0.7 125 0 1 5
1.8 11.1 0.9 113 0 1 5
1.8 11.3 1.2 110 0 1 5
1.8 11.5 1.4 97 0 1 5
1.8 11.7 1.7 83 0 1 5
1.8 11.9 1.9 102 0 1 5
1.8 12.2 2.1 110 0 1 5
1.8 12.4 2.3 105 0 1 5
1.8 12.6 2.5 102 0 1 5
1.8 12.8 2.6 123 0 1 5
1.8 13 2.7 79 0 1 5
1.8 13.3 2.7 101 0 1 5
1.8 13.5 2.7 118 0 1 5
2 8.9 0.2 128 0 1 1
2 9.4 0.2 132 0 1 1
2.1 2.2 0 137 0 1 1
2.1 2.7 0 133 0 1 1
2.1 3.1 0 132 0 1 1
2.1 3.6 0.1 130 0 1 1
2.1 4 0.1 129 0 1 1
2.1 4.5 0.1 129 0 1 1
2.1 5 0.1 129 0 1 1
2.1 5.4 0.1 132 0 1 1
2.1 5.9 0.2 125 0 1 1
2.1 6.3 0.2 129 0 1 1
2.1 6.8 0.2 126 0 1 1
2.1 7.4 0.2 124 0 1 1
2.1 7.9 0.2 134 0 1 1
2.1 8.4 0.2 137 0 1 1
2.2 4 0.1 35 0 1 2
2.2 4.1 0.3 48 0 1 2
2.2 4.2 0.2 48 0 1 2
2.2 4.2 0.3 120 0 1 2
2.2 4.3 0.2 113 0 1 2
2.2 4.4 0.2 85 0 1 2
2.2 6 0.2 99 0 1 2
2.2 6.2 0.2 50 0 1 2
2.2 6.3 0.3 48 0 1 2
2.2 6.3 0.4 94 0 1 2
2.2 6.4 0.3 114 0 1 2
2.2 6.5 0.2 102 0 1 2
2.2 10 0.2 140 0 1 5
2.2 10.2 0.3 140 0 1 5
2.2 10.4 0.4 127 0 1 5
2.2 10.6 0.6 117 0 1 5
2.2 10.9 0.7 124 0 1 5
2.2 11.1 1 108 0 1 5
2.2 11.3 1.2 106 0 1 5
2.2 11.5 1.5 99 0 1 5
2.2 11.7 1.8 102 0 1 5
2.2 11.9 2 88 0 1 5
2.2 12.2 2.2 101 0 1 5
2.2 12.4 2.4 104 0 1 5
2.2 12.6 2.6 117 0 1 5
2.2 12.8 2.6 127 0 1 5
2.2 13 2.7 102 0 1 5
2.3 3.9 0.1 48 0 1 2
2.3 4 0.3 69 0 1 2
2.3 4 0.4 82 0 1 2
2.3 4.1 0.4 99 0 1 2
2.3 6 0.2 143 0 1 2
2.3 6 0.3 116 0 1 2
2.3 6.2 0.4 136 0 1 2
2.3 6.3 0.4 87 0 1 2
2.3 6.4 0.4 111 0 1 2
2.4 4 0.4 139 0 1 2
2.4 4.1 0.4 133 0 1 2
2.4 6 0.2 128 0 1 2
2.4 6.2 0.4 136 0 1 2
2.4 6.3 0.4 119 0 1 2
2.4 6.5 0.4 108 0 1 2
2.5 1.8 -0.1 151 0 1 1
2.5 2.2 0 142 0 1 1
2.5 2.7 0 135 0 1 1
2.5 3.1 0 134 0 1 1
2.5 3.6 0 123 0 1 1
2.5 4 0.3 91 0 1 2
2.5 4.1 0.4 140 0 1 2
2.5 4.2 0.4 140 0 1 2
2.5 4.3 0.4 153 0 1 2
2.5 5 0.1 128 0 1 1
2.5 5.4 0.1 128 0 1 1
2.5 5.9 0.1 132 0 1 1
2.5 6 0.1 142 0 1 2
2.5 6.1 0.2 157 0 1 2
2.5 6.3 0.4 142 0 1 2
2.5 6.4 0.4 144 0 1 2
2.5 7.4 0.2 131 0 1 1
2.5 7.9 0.2 128 0 1 1
2.5 8.4 0.2 116 0 1 1
2.5 8.9 0.2 136 0 1 1
2.5 9.4 0.2 122 0 1 1
2.5 9.9 0.2 124 0 1 1
2.6 3.9 0 119 0 1 2
2.6 4 0.2 91 0 1 2
2.6 4 0.3 137 0 1 2
2.6 4.1 0.4 138 0 1 2
2.6 6.3 0.3 148 0 1 2
2.6 6.4 0.3 155 0 1 2
2.6 10 0.2 128 0 1 5
2.6 10.2 0.3 132 0 1 5
2.6 10.4 0.4 123 0 1 5
2.6 10.6 0.6 114 0 1 5
2.6 10.9 0.7 113 0 1 5
2.6 11.1 1 110 0 1 5
2.6 11.3 1.3 102 0 1 5
2.6 11.5 1.6 103 0 1 5
2.6 11.7 1.9 101 0 1 5
2.6 11.9 2.1 111 0 1 5
2.6 12.2 2.3 111 0 1 5
2.6 12.4 2.5 122 0 1 5
2.6 12.6 2.6 123 0 1 5
2.6 12.8 2.7 134 0 1 5
2.6 13 2.7 126 0 1 5
2.7 6.1 0.1 129 0 1 2
2.7 6.2 0.2 149 0 1 2
2.7 6.3 0.2 141 0 1 2
3 1.8 -0.1 156 0 1 1
3 2.2 -0.1 147 0 1 1
3 2.7 0 141 0 1 1
3 3.2 0 136 0 1 1
3 3.6 0 125 0 1 1
3 4.1 0 127 0 1 1
3 4.5 0 120 0 1 1
3 5.5 0.1 134 0 1 1
3 5.9 0.1 126 0 1 1
3 6.4 0.1 129 0 1 1
3 6.9 0.1 127 0 1 1
3 7.4 0.1 131 0 1 1
3 7.9 0.1 133 0 1 1
3 8.4 0.1 130 0 1 1
3 8.9 0.1 131 0 1 1
3 9.4 0.1 125 0 1 1
3 9.9 0.1 133 0 1 1
3.1 10 0.2 126 0 1 5
3.1 10.2 0.3 117 0 1 5
3.1 10.4 0.5 114 0 1 5
3.1 10.6 0.7 114 0 1 5
3.1 10.9 0.8 113 0 1 5
3.1 11.1 1.1 111 0 1 5
3.1 11.3 1.3 118 0 1 5
3.1 11.5 1.6 110 0 1 5
3.1 11.7 1.9 109 0 1 5
3.1 11.9 2.1 114 0 1 5
3.1 12.2 2.4 119 0 1 5
3.1 12.4 2.5 127 0 1 5
3.1 12.6 2.6 120 0 1 5
3.1 12.8 2.6 123 0 1 5
3.1 13 2.6 118 0 1 5
3.5 1.3 -0.1 165 0 1 1
3.5 1.8 -0.1 160 0 1 1
3.5 2.3 -0.1 153 0 1 1
3.5 2.7 -0.1 146 0 1 1
3.5 3.2 0 137 0 1 1
3.5 3.6 0 133 0 1 1
3.5 4.1 0 118 0 1 1
3.5 4.6 0 132 0 1 1
3.5 5 0 134 0 1 1
3.5 5.5 0.1 131 0 1 1
3.5 5.9 0.1 132 0 1 1
3.5 6.4 0.1 127 0 1 1
3.5 6.9 0.1 130 0 1 1
3.5 7.4 0.1 129 0 1 1
3.5 7.9 0.1 129 0 1 1
3.5 8.4 0.1 132 0 1 1
3.5 8.9 0.1 125 0 1 1
3.5 9.4 0.1 135 0 1 1
3.5 10 0.2 118 0 1 5
3.5 10.2 0.4 109 0 1 5
3.5 10.4 0.6 106 0 1 5
3.5 10.6 0.8 111 0 1 5
3.5 10.9 0.9 97 0 1 5
3.5 11.1 1.2 99 0 1 5
3.5 11.3 1.4 92 0 1 5
3.5 11.5 1.7 103 0 1 5
3.5 11.7 1.9 112 0 1 5
3.5 11.9 2.2 119 0 1 5
3.5 12.2 2.4 126 0 1 5
3.5 12.4 2.5 130 0 1 5
3.5 12.6 2.6 86 0 1 5
3.9 1.4 -0.2 159 0 1 1
3.9 1.8 -0.2 160 0 1 1
3.9 2.3 -0.1 157 0 1 1
3.9 2.7 -0.1 155 0 1 1
3.9 3.2 -0.1 152 0 1 1
3.9 3.7 -0.1 152 0 1 1
3.9 4.1 0 142 0 1 1
3.9 4.6 0 141 0 1 1
3.9 5 0 136 0 1 1
3.9 5.5 0 134 0 1 1
3.9 6 0.1 133 0 1 1
3.9 6.4 0.1 133 0 1 1
3.9 6.9 0.1 126 0 1 1
3.9 7.4 0.1 136 0 1 1
3.9 7.9 0.1 132 0 1 1
3.9 8.4 0.1 120 0 1 1
3.9 8.9 0.1 128 0 1 1
3.9 9.4 0.1 127 0 1 1
4 9.8 0.2 108 0 1 5
4 10 0.4 104 0 1 5
4 10.2 0.6 100 0 1 5
4 10.4 0.8 94 0 1 5
4 10.6 1 87 0 1 5
4 10.9 1.2 92 0 1 5
4 11.1 1.4 94 0 1 5
4 11.3 1.6 96 0 1 5
4 11.5 1.8 104 0 1 5
4 11.7 2 111 0 1 5
4 11.9 2.2 117 0 1 5
4 12.2 2.4 127 0 1 5
4 12.4 2.5 135 0 1 5
4 12.6 2.6 118 0 1 5
4.4 0.9 -0.3 155 0 1 1
4.4 1.4 -0.3 160 0 1 1
4.4 1.8 -0.3 161 0 1 1
4.4 2.3 -0.3 153 0 1 1
4.4 2.8 -0.3 158 0 1 1
4.4 3.2 -0.2 165 0 1 1
4.4 3.7 -0.2 159 0 1 1
4.4 4.1 -0.2 160 0 1 1
4.4 4.6 -0.1 157 0 1 1
4.4 5.1 0 145 0 1 1
4.4 5.5 0 138 0 1 1
4.4 6 0 138 0 1 1
4.4 6.5 0.1 132 0 1 1
4.4 6.9 0.1 126 0 1 1
4.4 7.4 0.1 129 0 1 1
4.4 7.9 0.1 131 0 1 1
4.4 8.4 0.1 123 0 1 1
4.4 8.9 0.1 132 0 1 1
4.4 9.4 0.1 131 0 1 1
4.4 9.5 0.1 134 0 1 5
4.4 9.8 0.3 109 0 1 5
4.4 10 0.5 102 0 1 5
4.4 10.2 0.7 99 0 1 5
4.4 10.4 0.9 100 0 1 5
4.4 10.6 1.2 97 0 1 5
4.4 10.9 1.4 108 0 1 5
4.4 11.1 1.6 105 0 1 5
4.4 11.3 1.8 107 0 1 5
4.4 11.5 1.9 113 0 1 5
4.4 11.7 2.1 122 0 1 5
4.4 11.9 2.3 129 0 1 5
4.4 12.2 2.4 137 0 1 5
4.4 12.4 2.5 138 0 1 5
4.4 12.6 2.5 137 0 1 5
4.8 9.5 0.1 109 0 1 5
4.8 9.8 0.4 104 0 1 5
4.8 10 0.6 102 0 1 5
4.8 10.2 0.9 104 0 1 5
4.8 10.4 1.1 101 0 1 5
4.8 10.6 1.3 110 0 1 5
4.8 10.9 1.5 108 0 1 5
4.8 11.1 1.7 118 0 1 5
4.8 11.3 1.9 118 0 1 5
4.8 11.5 2 120 0 1 5
4.8 11.7 2.1 130 0 1 5
4.8 11.9 2.3 139 0 1 5
4.8 12.2 2.4 95 0 1 5
4.8 12.4 2.4 139 0 1 5
4.9 1.4 -0.6 160 0 1 1
4.9 1.9 -0.5 161 0 1 1
4.9 2.3 -0.5 164 0 1 1
4.9 2.8 -0.5 157 0 1 1
4.9 3.2 -0.5 155 0 1 1
4.9 3.7 -0.4 163 0 1 1
4.9 4.2 -0.4 163 0 1 1
4.9 4.6 -0.3 157 0 1 1
4.9 5.1 -0.2 159 0 1 1
4.9 5.6 -0.1 150 0 1 1
4.9 6 0 137 0 1 1
4.9 6.5 0 141 0 1 1
4.9 7 0 137 0 1 1
4.9 7.5 0 136 0 1 1
4.9 7.9 0 132 0 1 1
4.9 8.4 0 132 0 1 1
4.9 8.9 0.1 125 0 1 1
4.9 9.4 0.1 133 0 1 1
5.3 4.2 -0.6 151 0 1 1
5.3 4.7 -0.5 154 0 1 1
5.3 5.1 -0.3 153 0 1 1
5.3 5.6 -0.2 160 0 1 1
5.3 6.1 -0.1 151 0 1 1
5.3 6.5 0 133 0 1 1
5.3 7 0 134 0 1 1
5.3 7.5 0 132 0 1 1
5.3 8 0 130 0 1 1
5.3 8.4 0 132 0 1 1
5.3 8.9 0 132 0 1 1
5.3 9.4 0 123 0 1 1
5.3 9.5 0.2 111 0 1 5
5.3 9.8 0.5 131 0 1 5
5.3 10 0.7 107 0 1 5
5.3 10.2 1 117 0 1 5
5.3 10.4 1.2 125 0 1 5
5.3 10.6 1.4 123 0 1 5
5.3 10.9 1.6 128 0 1 5
5.3 11.1 1.8 135 0 1 5
5.3 11.3 2 132 0 1 5
5.3 11.5 2.1 137 0 1 5
5.3 11.7 2.2 143 0 1 5
5.3 11.9 2.2 145 0 1 5
5.3 12.2 2.3 117 0 1 5
5.7 9.3 0 120 0 1 5
5.7 9.5 0.3 115 0 1 5
5.7 9.8 0.5 113 0 1 5
5.7 10 0.8 126 0 1 5
5.7 10.2 1 129 0 1 5
5.7 10.4 1.2 136 0 1 5
5.7 10.6 1.4 146 0 1 5
5.7 10.9 1.6 148 0 1 5
5.7 11.1 1.8 152 0 1 5
5.7 11.3 1.9 150 0 1 5
5.7 11.5 2 148 0 1 5
5.7 11.7 2.1 125 0 1 5
5.7 11.9 2.1 149 0 1 5
5.7 12.2 2.2 134 0 1 5
5.8 4.2 -0.9 168 0 1 1
5.8 4.7 -0.7 145 0 1 1
5.8 5.1 -0.5 150 0 1 1
5.8 5.6 -0.3 156 0 1 1
5.8 6.1 -0.2 158 0 1 1
5.8 6.5 0 139 0 1 1
5.8 7 0 136 0 1 1
5.8 7.5 0 133 0 1 1
5.8 8 0 130 0 1 1
5.8 8.4 0 137 0 1 1
5.8 8.9 0 129 0 1 1
6.1 9.3 0.1 137 0 1 5
6.1 9.5 0.3 133 0 1 5
6.1 9.8 0.6 136 0 1 5
6.1 10 0.8 144 0 1 5
6.1 10.2 1 155 0 1 5
6.1 10.4 1.3 165 0 1 5
6.1 10.6 1.4 172 0 1 5
6.1 10.9 1.6 167 0 1 5
6.1 11.1 1.7 161 0 1 5
6.1 11.3 1.8 157 0 1 5
6.1 11.5 1.9 156 0 1 5
6.1 11.7 2 135 0 1 5
6.1 11.9 2 154 0 1 5
6.2 4.7 -1 136 0 1 4
6.3 5.2 -0.7 140 0 1 1
6.3 5.6 -0.5 155 0 1 1
6.3 6.1 -0.3 165 0 1 1
6.3 6.6 -0.1 165 0 1 1
6.3 7 0 139 0 1 1
6.3 7.5 0 137 0 1 1
6.3 8 0 134 0 1 1
6.3 8.4 0 131 0 1 1
6.3 8.9 0 133 0 1 1
6.6 9.3 0 143 0 1 5
6.6 9.5 0.3 145 0 1 5
6.6 9.8 0.5 153 0 1 5
6.6 10 0.8 164 0 1 5
6.6 10.2 1 176 0 1 5
6.6 10.4 1.2 186 0 1 5
6.6 10.6 1.3 180 0 1 5
6.6 10.9 1.5 174 0 1 5
6.6 11.1 1.6 167 0 1 5
6.6 11.3 1.7 124 0 1 5
6.6 11.5 1.7 103 0 1 5
6.6 11.7 1.8 156 0 1 5
6.7 4.3 -1.4 158 0 1 4
6.7 4.7 -1.2 132 0 1 4
6.7 5.2 -0.9 138 0 1 4
6.7 5.7 -0.6 159 0 1 1
6.7 6.1 -0.4 170 0 1 1
6.7 6.6 -0.2 166 0 1 1
6.7 7.1 -0.1 137 0 1 1
6.7 7.5 -0.1 136 0 1 1
6.7 8 -0.1 126 0 1 1
6.7 8.5 0 138 0 1 1
6.7 8.9 0 138 0 1 1
7 9.3 0 153 0 1 5
7 9.5 0.3 157 0 1 5
7 9.8 0.5 160 0 1 5
7 10 0.7 175 0 1 5
7 10.2 0.9 182 0 1 5
7 10.4 1.1 178 0 1 5
7 10.6 1.2 176 0 1 5
7 10.9 1.3 170 0 1 5
7 11.1 1.4 169 0 1 5
7 11.3 1.5 113 0 1 5
7 11.5 1.5 163 0 1 5
7 11.7 1.6 168 0 1 5
7.1 4.3 -1.5 138 0 1 4
7.1 4.7 -1.3 136 0 1 4
7.2 5.2 -1 142 0 1 4
7.2 5.7 -0.7 151 0 1 4
7.2 6.1 -0.4 175 0 1 1
7.2 6.6 -0.2 172 0 1 1
7.2 7.1 -0.1 142 0 1 1
7.2 7.5 -0.1 136 0 1 1
7.2 8 0 138 0 1 1
7.2 8.5 0 132 0 1 1
7.2 8.9 0 133 0 1 1
7.5 9.5 0.2 164 0 1 5
7.5 9.8 0.4 173 0 1 5
7.5 10 0.6 175 0 1 5
7.5 10.2 0.8 181 0 1 5
7.5 10.4 0.9 181 0 1 5
7.5 10.6 1 173 0 1 5
7.5 10.9 1.2 174 0 1 5
7.5 11.1 1.2 172 0 1 5
7.5 11.3 1.3 125 0 1 5
7.6 1.4 -1.9 160 0 1 4
7.6 1.9 -1.9 163 0 1 4
7.6 2.4 -1.9 162 0 1 4
7.6 2.8 -1.8 166 0 1 4
7.6 3.3 -1.8 166 0 1 4
7.6 3.8 -1.7 155 0 1 4
7.6 4.2 -1.6 150 0 1 4
7.6 4.7 -1.3 133 0 1 4
7.6 5.2 -1 136 0 1 4
7.6 5.7 -0.7 150 0 1 4
7.6 6.1 -0.4 171 0 1 1
7.6 6.6 -0.2 180 0 1 1
7.6 7.1 -0.1 148 0 1 1
7.6 7.5 0 139 0 1 1
7.6 8 0 132 0 1 1
7.6 8.5 0 135 0 1 1
7.6 8.9 0 141 0 1 1
7.6 9.4 0 162 0 1 1
7.9 9.5 0.1 167 0 1 5
7.9 9.8 0.3 173 0 1 5
7.9 10 0.5 174 0 1 5
7.9 10.2 0.6 176 0 1 5
7.9 10.4 0.8 175 0 1 5
7.9 10.6 0.9 177 0 1 5
7.9 10.9 1 140 0 1 5
7.9 11.1 1 160 0 1 5
7.9 11.3 1.1 173 0 1 5
8 1.4 -1.9 167 0 1 4
8 1.9 -1.9 171 0 1 4
8 2.3 -1.8 172 0 1 4
8 2.8 -1.8 170 0 1 4
8 3.3 -1.8 167 0 1 4
8 3.8 -1.7 162 0 1 4
8 4.2 -1.5 151 0 1 4
8 4.7 -1.3 133 0 1 4
8 5.2 -1 137 0 1 4
8.1 5.6 -0.7 150 0 1 4
8.1 6.1 -0.4 175 0 1 1
8.1 6.6 -0.2 173 0 1 1
8.1 7.1 0 148 0 1 1
8.1 7.5 0 140 0 1 1
8.1 8 0 130 0 1 1
8.1 8.5 0 139 0 1 1
8.1 8.9 0 138 0 1 1
8.1 9.4 0 132 0 1 1
8.3 9.5 0 132 0 1 5
8.3 9.8 0.1 171 0 1 5
8.3 10 0.3 171 0 1 5
8.3 10.2 0.4 175 0 1 5
8.3 10.4 0.6 170 0 1 5
8.3 10.6 0.7 176 0 1 5
8.3 10.9 0.8 116 0 1 5
8.4 1.4 -1.9 168 0 1 4
8.4 1.9 -1.8 171 0 1 4
8.4 2.3 -1.8 171 0 1 4
8.4 2.8 -1.8 170 0 1 4
8.4 3.3 -1.8 170 0 1 4
8.4 3.7 -1.7 150 0 1 4
8.5 4.2 -1.5 149 0 1 4
8.5 4.7 -1.3 126 0 1 4
8.5 5.2 -1 135 0 1 4
8.5 5.6 -0.6 156 0 1 4
8.5 6.1 -0.4 172 0 1 1
8.5 6.6 -0.1 171 0 1 1
8.5 7.1 0 151 0 1 1
8.5 7.5 0 138 0 1 1
8.5 8 0 140 0 1 1
8.5 8.5 0 135 0 1 1
8.5 9 0 126 0 1 1
8.5 9.4 0 134 0 1 1
8.8 9.8 0 169 0 1 5
8.8 10 0.2 169 0 1 5
8.8 10.2 0.3 172 0 1 5
8.8 10.4 0.4 174 0 1 5
8.8 10.6 0.5 165 0 1 5
8.8 10.9 0.5 180 0 1 5
8.9 1.4 -1.8 168 0 1 4
8.9 1.8 -1.8 171 0 1 4
8.9 2.3 -1.8 172 0 1 4
8.9 2.8 -1.8 173 0 1 4
8.9 3.3 -1.8 170 0 1 4
8.9 3.7 -1.7 153 0 1 4
8.9 4.2 -1.5 142 0 1 4
8.9 4.7 -1.2 137 0 1 4
8.9 5.2 -0.9 129 0 1 4
8.9 5.6 -0.6 154 0 1 4
8.9 8.5 0 134 0 1 1
8.9 9 0 122 0 1 1
8.9 9.4 0 136 0 1 1
9 6.1 -0.4 177 0 1 1
9 6.6 -0.1 172 0 1 1
9 7.1 0 156 0 1 1
9 7.5 0 140 0 1 1
9 8 0 135 0 1 1
9.2 10 0 133 0 1 5
9.2 10.2 0.1 169 0 1 5
9.2 10.4 0.2 159 0 1 5
9.2 10.6 0.2 153 0 1 5
9.2 10.9 0.3 172 0 1 5
9.3 1.3 -1.8 167 0 1 4
9.3 1.8 -1.8 171 0 1 4
9.3 2.3 -1.8 174 0 1 4
9.3 2.8 -1.8 173 0 1 4
9.3 3.2 -1.8 172 0 1 4
9.3 3.7 -1.7 154 0 1 4
9.3 4.2 -1.5 151 0 1 4
9.3 4.7 -1.2 127 0 1 4
9.4 5.2 -0.9 130 0 1 4
9.4 5.6 -0.6 144 0 1 4
9.4 6.1 -0.3 167 0 1 1
9.4 6.6 -0.1 180 0 1 1
9.4 7.1 0 158 0 1 1
9.4 7.5 0 143 0 1 1
9.4 8 0 142 0 1 1
9.4 8.5 0 143 0 1 1
9.4 9 0 141 0 1 1
9.4 9.4 0 140 0 1 1
9.4 9.9 0 140 0 1 1
9.6 10.6 0 175 0 1 5
9.6 10.9 0.1 173 0 1 5
9.7 1.3 -1.8 167 0 1 4
9.7 1.8 -1.8 171 0 1 4
9.7 2.3 -1.8 173 0 1 4
9.8 2.8 -1.8 174 0 1 4
9.8 3.2 -1.7 172 0 1 4
9.8 3.7 -1.7 168 0 1 4
9.8 4.2 -1.5 131 0 1 4
9.8 4.7 -1.2 131 0 1 4
9.8 5.1 -0.9 132 0 1 4
9.8 5.6 -0.6 142 0 1 4
9.8 6.1 -0.3 178 0 1 1
9.8 7.5 0 140 0 1 1
9.8 8 0 143 0 1 1
9.8 8.5 0 135 0 1 1
9.8 9 0 137 0 1 1
9.8 9.5 0 142 0 1 1
9.8 9.9 0 138 0 1 1
9.8 10.4 0 137 0 1 1
9.8 10.9 0 173 0 1 1
9.9 6.6 -0.1 184 0 1 1
9.9 7.1 0 164 0 1 1
10.2 1.8 -1.8 174 0 1 4
10.2 2.3 -1.7 177 0 1 4
10.2 2.7 -1.7 176 0 1 4
10.2 3.2 -1.7 176 0 1 4
10.2 3.7 -1.6 162 0 1 4
10.2 4.2 -1.5 141 0 1 4
10.2 4.7 -1.2 126 0 1 4
10.2 5.1 -0.9 127 0 1 4
10.2 10.4 0 134 0 1 1
10.2 10.9 0 135 0 1 1
10.2 11.4 0 136 0 1 1
10.3 5.6 -0.6 145 0 1 4
10.3 6.1 -0.3 178 0 1 1
10.3 6.6 -0.1 186 0 1 1
10.3 7.1 0 155 0 1 1
10.3 7.5 0 147 0 1 1
10.3 8 0 142 0 1 1
10.3 8.5 0 142 0 1 1
10.3 9 0 142 0 1 1
10.3 9.5 0 137 0 1 1
10.3 9.9 0 145 0 1 1
10.6 1.8 -1.7 155 0 1 4
10.6 2.2 -1.7 175 0 1 4
10.6 2.7 -1.7 162 0 1 4
10.6 3.2 -1.6 155 0 1 4
10.6 3.7 -1.6 166 0 1 4
10.6 12.4 0 128 0 1 1
10.7 4.2 -1.4 137 0 1 4
10.7 4.7 -1.1 120 0 1 4
10.7 5.1 -0.8 133 0 1 4
10.7 5.6 -0.5 153 0 1 4
10.7 6.1 -0.3 171 0 1 1
10.7 6.6 -0.1 175 0 1 1
10.7 7.1 0 158 0 1 1
10.7 7.5 0 147 0 1 1
10.7 8 0 146 0 1 1
10.7 8.5 0 138 0 1 1
10.7 9 0 142 0 1 1
10.7 9.5 0 138 0 1 1
10.7 10 0 138 0 1 1
10.7 10.4 0 134 0 1 1
10.7 10.9 0 141 0 1 1
10.7 11.4 0 127 0 1 1
10.7 11.9 0 135 0 1 1
11.1 1.7 -1.5 119 0 1 4
11.1 2.2 -1.5 140 0 1 4
11.1 2.7 -1.5 131 0 1 4
11.1 3.2 -1.5 141 0 1 4
11.1 3.7 -1.4 140 0 1 4
11.1 4.2 -1.3 122 0 1 4
11.1 4.6 -1 121 0 1 4
11.1 5.1 -0.7 129 0 1 4
11.1 9 0 137 0 1 1
11.1 9.5 0 133 0 1 1
11.1 10 0 136 0 1 1
11.1 10.5 0 131 0 1 1
11.1 10.9 0 137 0 1 1
11.1 11.4 0 144 0 1 1
11.1 11.9 0 142 0 1 1
11.1 12.4 0 111 0 1 1
11.1 12.9 0 132 0 1 1
11.2 5.6 -0.5 151 0 1 4
11.2 6.1 -0.2 177 0 1 1
11.2 6.6 0 181 0 1 1
11.2 7.1 0 158 0 1 1
11.2 7.5 0 148 0 1 1
11.2 8 0 145 0 1 1
11.2 8.5 0 138 0 1 1
11.5 1.7 -1.3 116 0 1 4
11.5 2.2 -1.3 119 0 1 4
11.5 2.7 -1.3 117 0 1 4
11.5 3.2 -1.2 112 0 1 4
11.5 3.7 -1.2 104 0 1 4
11.5 4.2 -1 108 0 1 4
11.5 11 0 143 0 1 1
11.5 11.5 0 138 0 1 1
11.5 11.9 0 125 0 1 1
11.5 12.4 0 131 0 1 1
11.5 12.9 0 132 0 1 1
11.5 13.4 0 134 0 1 1
11.5 13.9 0 130 0 1 1
11.6 4.6 -0.8 120 0 1 4
11.6 5.1 -0.6 132 0 1 4
11.6 5.6 -0.4 159 0 1 1
11.6 6.1 -0.1 182 0 1 1
11.6 6.6 0 168 0 1 1
11.6 7.1 0 155 0 1 1
11.6 7.5 0 150 0 1 1
11.6 8 0 144 0 1 1
11.6 8.5 0 145 0 1 1
11.6 9 0 149 0 1 1
11.6 9.5 0 147 0 1 1
11.6 10 0 133 0 1 1
11.6 10.5 0 141 0 1 1
11.9 12.9 0 124 0 1 1
11.9 13.4 0 138 0 1 1
11.9 13.9 0 136 0 1 1
11.9 14.4 0 136 0 1 1
12 1.7 -1 107 0 1 4
12 2.2 -1 107 0 1 4
12 2.7 -1 107 0 1 4
12 3.2 -1 103 0 1 4
12 3.7 -0.9 103 0 1 4
12 4.1 -0.8 102 0 1 4
12 4.6 -0.6 122 0 1 4
12 5.1 -0.4 154 0 1 4
12 8 0 142 0 1 1
12 8.5 0 147 0 1 1
12 9 0 134 0 1 1
12 9.5 0 146 0 1 1
12 10 0 138 0 1 1
12 10.5 0 143 0 1 1
12 11 0 139 0 1 1
12 11.5 0 140 0 1 1
12 12 0 141 0 1 1
12 12.5 0 135 0 1 1
12.1 5.6 -0.2 181 0 1 1
12.1 6.1 -0.1 183 0 1 1
12.1 6.6 0 161 0 1 1
12.1 7.1 0 157 0 1 1
12.1 7.5 0 152 0 1 1
12.4 2.2 -0.7 110 0 1 4
12.4 2.7 -0.7 110 0 1 4
12.4 3.2 -0.7 105 0 1 4
12.4 3.6 -0.6 105 0 1 4
12.4 10 0 131 0 1 1
12.4 10.5 0 140 0 1 1
12.4 11 0 140 0 1 1
12.4 11.5 0 149 0 1 1
12.4 12 0 138 0 1 1
12.4 12.5 0 141 0 1 1
12.4 13 0 137 0 1 1
12.4 13.5 0 138 0 1 1
12.4 13.9 0 137 0 1 1
12.4 14.4 0 141 0 1 1
12.4 14.9 0 140 0 1 1
12.4 15.4 0 156 0 1 1
12.4 15.5 0 181 0 1 1
12.5 4.1 -0.5 119 0 1 4
12.5 4.6 -0.4 121 0 1 4
12.5 5.1 -0.2 146 0 1 1
12.5 5.6 -0.1 174 0 1 1
12.5 6.1 0 185 0 1 1
12.5 6.6 0.1 163 0 1 1
12.5 7.1 0.1 154 0 1 1
12.5 7.6 0.1 154 0 1 1
12.5 8 0 148 0 1 1
12.5 8.5 0 150 0 1 1
12.5 9 0 144 0 1 1
12.5 9.5 0 151 0 1 1
12.5 15.4 0 93 0 1 1
12.7 15.2 0 105 0 1 1
12.8 11.5 0 147 0 1 1
12.8 12 0 139 0 1 1
12.8 12.5 0 143 0 1 1
12.8 13 0 143 0 1 1
12.8 13.5 0 139 0 1 1
12.8 14 0 137 0 1 1
12.8 14.4 0 136 0 1 1
12.8 14.9 0 138 0 1 1
12.8 15.1 0 118 0 1 1
12.9 2.2 -0.4 129 0 1 1
12.9 2.7 -0.4 152 0 1 1
12.9 3.1 -0.4 126 0 1 1
12.9 3.6 -0.4 140 0 1 1
12.9 4.1 -0.3 166 0 1 1
12.9 4.6 -0.2 173 0 1 1
12.9 5.1 -0.1 182 0 1 1
12.9 5.6 0 184 0 1 1
12.9 7.6 0.1 159 0 1 1
12.9 8 0.1 156 0 1 1
12.9 8.5 0.1 146 0 1 1
12.9 9 0 156 0 1 1
12.9 9.5 0 146 0 1 1
12.9 10 0 150 0 1 1
12.9 10.5 0 143 0 1 1
12.9 11 0 140 0 1 1
13 6.1 0.1 183 0 1 1
13 6.6 0.1 165 0 1 1
13 7.1 0.1 159 0 1 1
13.1 14.9 0 93 0 1 1
13.2 14.8 0 88 0 1 1
13.3 12.5 0 138 0 1 1
13.3 13 0 142 0 1 1
13.3 13.5 0 143 0 1 1
13.3 13.9 0 141 0 1 1
13.3 14.4 0 136 0 1 1
13.3 14.7 0 133 0 1 1
13.4 2.2 -0.2 182 0 1 1
13.4 2.7 -0.2 185 0 1 1
13.4 3.2 -0.2 181 0 1 1
13.4 3.6 -0.2 187 0 1 1
13.4 4.1 -0.1 183 0 1 1
13.4 4.6 0 187 0 1 1
13.4 5.1 0 188 0 1 1
13.4 5.6 0 179 0 1 1
13.4 6.1 0 173 0 1 1
13.4 7.1 0 162 0 1 1
13.4 7.5 0 160 0 1 1
13.4 8 0 156 0 1 1
13.4 8.5 0 146 0 1 1
13.4 9 0 161 0 1 1
13.4 9.5 0 151 0 1 1
13.4 10 0 142 0 1 1
13.4 10.5 0 144 0 1 1
13.4 11 0 142 0 1 1
13.4 11.5 0 137 0 1 1
13.4 12 0 140 0 1 1
13.5 6.6 0.1 167 0 1 1
13.7 14.4 0 107 0 1 1
13.8 14.3 0 101 0 1 1
13.9 2.2 0 189 0 1 1
13.9 2.7 0 188 0 1 1
13.9 3.2 0 189 0 1 1
13.9 3.7 0 190 0 1 1
13.9 4.1 0 191 0 1 1
13.9 4.6 0 187 0 1 1
13.9 5.1 0 183 0 1 1
13.9 5.6 0 179 0 1 1
13.9 6.1 0 174 0 1 1
13.9 6.6 0 169 0 1 1
13.9 7.1 0 162 0 1 1
13.9 7.5 0 162 0 1 1
13.9 8 0 159 0 1 1
13.9 8.5 0 156 0 1 1
13.9 9 0 152 0 1 1
13.9 9.5 0 147 0 1 1
13.9 10 0 154 0 1 1
13.9 10.5 0 150 0 1 1
13.9 11 0 148 0 1 1
13.9 11.5 0 147 0 1 1
13.9 11.9 0 144 0 1 1
13.9 12.4 0 142 0 1 1
13.9 12.9 0 144 0 1 1
13.9 13.4 0 138 0 1 1
13.9 13.9 0 138 0 1 1
13.9 14.3 0 94 0 1 1
14.3 2.2 0 182 0 1 1
14.3 2.7 0 183 0 1 1
14.3 13.8 -0.1 139 0 1 1
14.3 13.9 -0.1 97 0 1 1
14.4 3.2 0 186 0 1 1
14.4 3.7 0 185 0 1 1
14.4 4.2 0 186 0 1 1
14.4 4.6 0 185 0 1 1
14.4 5.1 0 182 0 1 1
14.4 5.6 0 178 0 1 1
14.4 6.1 0 175 0 1 1
14.4 6.6 0 170 0 1 1
14.4 7 0 166 0 1 1
14.4 7.5 0 158 0 1 1
14.4 8 0 158 0 1 1
14.4 8.5 0 159 0 1 1
14.4 9 0 162 0 1 1
14.4 9.5 0 154 0 1 1
14.4 10 0 154 0 1 1
14.4 10.5 0 150 0 1 1
14.4 10.9 0 147 0 1 1
14.4 11.4 0 144 0 1 1
14.4 11.9 0 144 0 1 1
14.4 12.4 0 142 0 1 1
14.4 12.9 -0.1 145 0 1 1
14.4 13.4 -0.1 142 0 1 1
14.4 13.7 -0.1 132 0 1 1
14.7 13.3 -0.1 130 0 1 1
14.8 2.3 0 180 0 1 1
14.8 2.7 0 183 0 1 1
14.8 3.2 0 185 0 1 1
14.8 13.2 -0.1 109 0 1 1
14.9 3.7 0 186 0 1 1
14.9 4.2 0 187 0 1 1
14.9 4.6 0 185 0 1 1
14.9 5.1 0 183 0 1 1
14.9 5.6 0 180 0 1 1
14.9 6.1 0 176 0 1 1
14.9 6.6 0 172 0 1 1
14.9 7 0 166 0 1 1
14.9 7.5 0 164 0 1 1
14.9 8 0 162 0 1 1
14.9 8.5 0 159 0 1 1
14.9 9 0 160 0 1 1
14.9 9.5 0 154 0 1 1
14.9 9.9 0 155 0 1 1
14.9 10.4 0 152 0 1 1
14.9 10.9 0 148 0 1 1
14.9 11.4 -0.1 141 0 1 1
14.9 11.9 -0.1 147 0 1 1
14.9 12.4 -0.1 152 0 1 1
14.9 12.8 -0.1 124 0 1 1
14.9 13.1 -0.1 141 0 1 1
15.1 12.8 -0.1 102 0 1 1
15.3 2.8 0 183 0 1 1
15.3 3.2 0 185 0 1 1
15.3 3.7 0 185 0 1 1
15.3 4.2 0 185 0 1 1
15.3 12.6 -0.1 137 0 1 1
15.4 4.7 0 182 0 1 1
15.4 5.1 0 184 0 1 1
15.4 5.6 0 181 0 1 1
15.4 6.1 0 178 0 1 1
15.4 6.6 0 173 0 1 1
15.4 7 0 168 0 1 1
15.4 7.5 0 165 0 1 1
15.4 8 0 164 0 1 1
15.4 8.5 0 163 0 1 1
15.4 9 0 159 0 1 1
15.4 9.4 0 159 0 1 1
15.4 9.9 -0.1 154 0 1 1
15.4 10.4 -0.1 145 0 1 1
15.4 10.9 -0.1 150 0 1 1
15.4 11.4 -0.1 145 0 1 1
15.4 11.9 -0.1 149 0 1 1
15.4 12.3 -0.1 151 0 1 1
15.4 12.5 -0.1 105 0 1 1
15.5 12.3 -0.1 148 0 1 1
15.7 12.1 -0.1 101 0 1 1
15.8 2.8 0 184 0 1 1
15.8 3.2 0 184 0 1 1
15.8 3.7 0 185 0 1 1
15.8 4.2 0 185 0 1 1
15.8 4.7 0 189 0 1 1
15.9 5.1 0 185 0 1 1
15.9 5.6 0 183 0 1 1
15.9 6.1 0 181 0 1 1
15.9 6.6 0 175 0 1 1
15.9 7 0 171 0 1 1
15.9 7.5 0 168 0 1 1
15.9 8 0 167 0 1 1
15.9 8.5 -0.1 162 0 1 1
15.9 8.9 -0.1 164 0 1 1
15.9 9.4 -0.1 161 0 1 1
15.9 9.9 -0.1 161 0 1 1
15.9 10.4 -0.1 156 0 1 1
15.9 10.9 -0.1 152 0 1 1
15.9 11.3 -0.1 153 0 1 1
15.9 11.8 -0.1 118 0 1 1
16.1 11.6 -0.1 146 0 1 1
16.3 2.8 0 184 0 1 1
16.3 3.3 0 184 0 1 1
16.3 3.7 0 185 0 1 1
16.3 4.2 0 184 0 1 1
16.3 4.7 0 186 0 1 1
16.4 5.1 0 186 0 1 1
16.4 5.6 0 183 0 1 1
16.4 6.1 0 181 0 1 1
16.4 6.6 0 176 0 1 1
16.4 7 0 173 0 1 1
16.4 7.5 -0.1 172 0 1 1
16.4 8 -0.1 164 0 1 1
16.4 8.5 -0.1 165 0 1 1
16.4 8.9 -0.1 153 0 1 1
16.4 9.4 -0.1 166 0 1 1
16.4 9.9 -0.1 157 0 1 1
16.4 10.4 -0.1 153 0 1 1
16.4 11.3 -0.1 146 0 1 1
16.5 10.8 -0.1 150 0 1 1
16.5 11.2 -0.1 141 0 1 1
16.6 11.1 -0.1 119 0 1 1
16.7 2.8 0 185 0 1 1
16.7 10.8 -0.1 140 0 1 1
16.8 3.3 0 185 0 1 1
16.8 3.7 0 186 0 1 1
16.8 4.2 0 188 0 1 1
16.8 4.7 0 185 0 1 1
16.8 5.2 0 187 0 1 1
16.9 5.6 -0.1 185 0 1 1
16.9 6.1 -0.1 182 0 1 1
16.9 6.6 -0.1 178 0 1 1
16.9 7 -0.1 174 0 1 1
16.9 7.5 -0.1 165 0 1 1
16.9 8 -0.1 167 0 1 1
16.9 8.4 -0.1 166 0 1 1
16.9 8.9 -0.1 168 0 1 1
16.9 9.4 -0.1 158 0 1 1
16.9 9.9 -0.1 155 0 1 1
17 10.1 -0.1 129 0 1 1
17 10.3 -0.1 107 0 1 1
17 10.4 -0.1 110 0 1 1
17.2 2.8 0 185 0 1 1
17.2 9.9 -0.1 141 0 1 1
17.3 3.3 0 183 0 1 1
17.3 3.8 0 187 0 1 1
17.3 4.2 0 186 0 1 1
17.3 4.7 -0.1 185 0 1 1
17.3 5.2 -0.1 188 0 1 1
17.3 5.6 -0.1 182 0 1 1
17.3 9.6 -0.1 156 0 1 1
17.4 6.1 -0.1 182 0 1 1
17.4 6.6 -0.1 179 0 1 1
17.4 7 -0.1 175 0 1 1
17.4 7.5 -0.1 170 0 1 1
17.4 8 -0.1 170 0 1 1
17.4 8.4 -0.1 165 0 1 1
17.4 8.9 -0.1 163 0 1 1
17.4 9.4 -0.1 123 0 1 1
17.5 9.1 -0.1 138 0 1 1
17.5 9.4 -0.1 109 0 1 1
17.7 2.9 0 184 0 1 1
17.7 3.3 0 184 0 1 1
17.7 8.9 -0.1 146 0 1 1
17.8 3.8 -0.1 186 0 1 1
17.8 4.2 -0.1 187 0 1 1
17.8 4.7 -0.1 186 0 1 1
17.8 5.2 -0.1 188 0 1 1
17.8 5.6 -0.1 184 0 1 1
17.8 8.7 -0.1 99 0 1 1
17.9 6.1 -0.1 181 0 1 1
17.9 6.6 -0.1 181 0 1 1
17.9 7 -0.1 174 0 1 1
17.9 7.5 -0.1 176 0 1 1
17.9 8 -0.1 171 0 1 1
17.9 8.4 -0.1 163 0 1 1
17.9 8.5 -0.1 131 0 1 1
18 8.2 -0.1 134 0 1 1
18 8.4 -0.1 103 0 1 1
18.2 2.9 0 184 0 1 1
18.2 3.3 -0.1 184 0 1 1
18.2 3.8 -0.1 187 0 1 1
18.2 8 -0.1 148 0 1 1
18.3 4.3 -0.1 187 0 1 1
18.3 4.7 -0.1 187 0 1 1
18.3 5.2 -0.1 188 0 1 1
18.3 5.6 -0.1 186 0 1 1
18.3 6.1 -0.1 184 0 1 1
18.3 7.8 -0.1 108 0 1 1
18.4 6.6 -0.1 180 0 1 1
18.4 7 -0.1 180 0 1 1
18.4 7.5 -0.1 172 0 1 1
18.4 7.6 -0.1 137 0 1 1
18.4 7.7 -0.1 152 0 1 1
18.5 7.5 -0.1 170 0 1 1
18.6 7 -0.1 113 0 1 1
18.7 2.9 -0.1 185 0 1 1
18.7 3.3 -0.1 186 0 1 1
18.7 3.8 -0.1 189 0 1 1
18.7 4.3 -0.1 187 0 1 1
18.7 6.6 -0.1 134 0 1 1
18.8 4.7 -0.1 189 0 1 1
18.8 5.2 -0.1 190 0 1 1
18.8 5.6 -0.1 186 0 1 1
18.8 6.1 -0.1 153 0 1 1
18.8 6.2 -0.1 178 0 1 1
18.8 6.4 -0.1 163 0 1 1
18.9 5.9 -0.1 159 0 1 1
18.9 6.1 -0.1 150 0 1 1
19 5.6 -0.1 152 0 1 1
19.2 3.4 -0.1 186 0 1 1
19.2 3.8 -0.1 186 0 1 1
19.2 4.3 -0.1 189 0 1 1
19.2 5 -0.1 179 0 1 1
19.2 5.2 -0.1 166 0 1 1
19.3 4.5 -0.1 170 0 1 1
19.3 4.7 -0.1 164 0 1 1
19.3 4.9 -0.1 121 0 1 1
19.4 3.6 -0.1 190 0 1 1
19.4 4.3 -0.1 169 0 1 1
19.5 4.1 -0.1 174 0 1 1
19.6 3.1 -0.1 148 0 1 1
19.6 3.2 -0.1 144 0 1 1
19.6 3.4 -0.1 130 0 1 1
19.6 3.8 -0.1 171 0 1 1
