-5.3 10.9 2.4 117 0 1 5
-5.2 11.2 2.5 79 0 1 5
-5.1 10.1 2 109 0 1 5
-5 10.5 2.3 115 0 1 5
-4.9 9.7 1.8 98 0 1 5
-4.9 10.8 2.5 97 0 1 5
-4.8 10.1 2.1 115 0 1 5
-4.8 11.2 2.5 92 0 1 5
-4.7 10.4 2.3 124 0 1 5
-4.6 9.4 1.5 113 0 1 5
-4.5 9.7 1.8 116 0 1 5
-4.5 10.8 2.4 90 0 1 5
-4.4 9 1.2 131 0 1 5
-4.4 10 2.1 112 0 1 5
-4.4 11.1 2.5 123 0 1 5
-4.3 8.2 0.6 117 0 1 5
-4.3 9.3 1.4 117 0 1 5
-4.3 10.4 2.2 116 0 1 5
-4.2 9.7 1.7 113 0 1 5
-4.2 10.7 2.4 141 0 1 5
-4.1 8.6 0.8 138 0 1 5
-4.1 11.1 2.4 134 0 1 5
-4 7.8 0.4 107 0 1 5
-4 8.9 1.1 127 0 1 5
-4 10 1.9 129 0 1 5
-3.9 8.2 0.6 122 0 1 5
-3.9 9.3 1.3 89 0 1 5
-3.9 10.4 2.1 132 0 1 5
-3.9 11.4 2.3 144 0 1 5
-3.8 7.4 0.1 115 0 1 5
-3.8 8.5 0.7 107 0 1 5
-3.8 9.6 1.5 123 0 1 5
-3.8 10.7 2.2 131 0 1 5
-3.8 14 2.1 137 0 1 5
-3.7 8.9 0.9 120 0 1 5
-3.7 10 1.8 131 0 1 5
-3.7 11.1 2.3 113 0 1 5
-3.7 14.3 2.3 76 0 1 5
-3.6 7.8 0.3 87 0 1 5
-3.6 10.3 1.9 128 0 1 5
-3.6 13.6 2.1 105 0 1 5
-3.5 6.9 -0.1 132 0 1 1
-3.5 8.1 0.5 100 0 1 5
-3.5 9.2 1.2 135 0 1 5
-3.5 13.9 2.3 71 0 1 5
-3.4 7.4 0.1 124 0 1 5
-3.4 8.5 0.7 115 0 1 5
-3.4 9.6 1.4 94 0 1 5
-3.4 10.7 2.1 138 0 1 5
-3.3 7.7 0.2 120 0 1 5
-3.3 8.8 0.8 124 0 1 5
-3.3 9.9 1.6 131 0 1 5
-3.3 11 2.1 136 0 1 5
-3.3 13.2 2.1 115 0 1 5
-3.2 8.1 0.4 123 0 1 5
-3.2 9.2 1 131 0 1 5
-3.2 10.3 1.8 122 0 1 5
-3.2 11.4 2.1 101 0 1 5
-3.2 13.5 2.3 109 0 1 5
-3.1 6.1 -0.1 119 0 1 1
-3.1 6.5 -0.1 93 0 1 1
-3.1 6.9 -0.1 122 0 1 1
-3.1 9.5 1.2 136 0 1 5
-3.1 10.6 1.9 141 0 1 5
-3.1 13.9 2.4 118 0 1 5
-3 7.4 -0.1 113 0 1 5
-3 8.4 0.5 122 0 1 5
-3 11 2 137 0 1 5
-3 13.2 2.2 125 0 1 5
-3 14.2 2.5 115 0 1 5
-2.9 7.7 0.1 114 0 1 5
-2.9 8.8 0.7 130 0 1 5
-2.9 9.9 1.4 135 0 1 5
-2.9 13.5 2.3 108 0 1 5
-2.8 6.1 -0.1 129 0 1 1
-2.8 6.5 -0.1 117 0 1 1
-2.8 7.3 -0.1 94 0 1 1
-2.8 8.1 0.3 118 0 1 5
-2.8 9.1 0.9 134 0 1 5
-2.8 10.2 1.6 129 0 1 5
-2.7 5.3 0 128 0 1 1
-2.7 5.7 -0.1 131 0 1 1
-2.7 6.9 -0.1 137 0 1 1
-2.7 8.4 0.4 133 0 1 5
-2.7 9.5 1.1 125 0 1 5
-2.7 10.6 1.8 137 0 1 5
-2.7 13.9 2.5 106 0 1 5
-2.6 8.8 0.6 118 0 1 5
-2.6 9.8 1.3 131 0 1 5
-2.6 10.9 1.9 131 0 1 5
-2.6 13.1 2.2 123 0 1 5
-2.5 7.7 0 130 0 1 5
-2.5 10.2 1.5 138 0 1 5
-2.5 11.3 2.1 108 0 1 5
-2.5 13.5 2.4 124 0 1 5
-2.4 4.9 -0.1 136 0 1 1
-2.4 5.3 -0.1 132 0 1 1
-2.4 5.7 -0.1 137 0 1 1
-2.4 6.1 -0.1 133 0 1 1
-2.4 6.5 -0.1 102 0 1 1
-2.4 7 -0.1 127 0 1 1
-2.4 7.3 -0.1 126 0 1 1
-2.4 7.7 -0.1 94 0 1 1
-2.4 8 0.1 132 0 1 5
-2.4 9.1 0.7 138 0 1 5
-2.4 13.8 2.4 127 0 1 5
-2.3 4.5 0 114 0 1 1
-2.3 8.4 0.3 133 0 1 5
-2.3 9.4 0.9 137 0 1 5
-2.3 10.5 1.7 137 0 1 5
-2.3 14.2 2.4 106 0 1 5
-2.2 8.7 0.4 136 0 1 5
-2.2 9.8 1.1 137 0 1 5
-2.2 10.9 1.9 127 0 1 5
-2.2 13.1 2.3 124 0 1 5
-2.1 8 -0.1 138 0 1 5
-2.1 9.1 0.6 137 0 1 5
-2.1 10.1 1.3 131 0 1 5
-2.1 11.2 2 138 0 1 5
-2.1 13.4 2.3 133 0 1 5
-2 4.9 -0.1 105 0 1 1
-2 5.3 -0.1 133 0 1 1
-2 5.7 -0.1 113 0 1 1
-2 6.1 -0.1 138 0 1 1
-2 6.5 0 111 0 1 1
-2 7 0 139 0 1 1
-2 7.3 0 127 0 1 1
-2 7.7 0 129 0 1 1
-2 9.4 0.7 150 0 1 5
-2 10.5 1.5 90 0 1 5
-2 11.6 2.1 116 0 1 5
-2 12.7 2.2 120 0 1 5
-2 13.8 2.4 110 0 1 5
-1.9 3.8 -0.1 135 0 1 1
-1.9 4.1 -0.1 132 0 1 1
-1.9 4.2 0 89 0 1 2
-1.9 8.3 0.1 137 0 1 5
-1.9 10.8 1.7 115 0 1 5
-1.9 11.9 2.1 133 0 1 5
-1.9 13 2.3 122 0 1 5
-1.9 14.1 2.4 129 0 1 5
-1.8 3.8 0 120 0 1 2
-1.8 3.8 0.1 109 0 1 2
-1.8 4.1 0.2 116 0 1 2
-1.8 8.7 0.2 142 0 1 5
-1.8 9.8 0.9 137 0 1 5
-1.8 13.4 2.3 131 0 1 5
-1.7 3.7 0 61 0 1 2
-1.7 3.7 0.1 92 0 1 2
-1.7 9 0.4 144 0 1 5
-1.7 10.1 1.1 136 0 1 5
-1.7 11.2 1.9 133 0 1 5
-1.7 12.3 2.2 129 0 1 5
-1.6 4.1 0.2 117 0 1 2
-1.6 4.2 0.2 102 0 1 2
-1.6 4.9 -0.1 132 0 1 1
-1.6 5.3 -0.1 128 0 1 1
-1.6 5.7 -0.1 127 0 1 1
-1.6 6.1 0 131 0 1 1
-1.6 6.5 0 121 0 1 1
-1.6 9.4 0.5 140 0 1 5
-1.6 10.5 1.3 116 0 1 5
-1.6 11.5 2 130 0 1 5
-1.6 12.6 2.2 129 0 1 5
-1.6 13.7 2.3 131 0 1 5
-1.5 3.7 -0.1 133 0 1 1
-1.5 4.3 0.2 134 0 1 2
-1.5 7 0 104 0 1 1
-1.5 7.4 0 131 0 1 1
-1.5 7.8 0 132 0 1 1
-1.5 8.1 0 119 0 1 1
-1.5 8.6 0.1 133 0 1 5
-1.5 9.7 0.7 141 0 1 5
-1.5 10.8 1.6 138 0 1 5
-1.5 11.9 2.1 122 0 1 5
-1.5 13 2.2 136 0 1 5
-1.5 14.1 2.3 97 0 1 5
-1.4 3.7 0.1 69 0 1 2
-1.4 3.8 0.2 121 0 1 2
-1.4 4.1 0.2 77 0 1 2
-1.4 10.1 0.9 128 0 1 5
-1.4 11.2 1.7 120 0 1 5
-1.4 12.2 2.1 133 0 1 5
-1.4 13.3 2.2 135 0 1 5
-1.3 4.1 0.2 121 0 1 2
-1.3 4.3 0.1 130 0 1 2
-1.3 4.3 0.2 140 0 1 2
-1.3 5.3 -0.1 132 0 1 1
-1.3 9 0.2 141 0 1 5
-1.3 12.6 2.2 120 0 1 5
-1.3 13.7 2.2 128 0 1 5
-1.2 3.4 0 120 0 1 1
-1.2 3.9 0.2 140 0 1 2
-1.2 4 0.2 139 0 1 2
-1.2 4.1 0.1 135 0 1 2
-1.2 4.2 0.1 135 0 1 2
-1.2 4.3 0 131 0 1 2
-1.2 4.6 0 134 0 1 1
-1.2 4.9 0 130 0 1 1
-1.2 5.7 -0.1 136 0 1 1
-1.2 6.1 -0.1 138 0 1 1
-1.2 6.5 0 131 0 1 1
-1.2 7 0 132 0 1 1
-1.2 7.3 0 119 0 1 1
-1.2 7.7 0 109 0 1 1
-1.2 8.1 0 152 0 1 1
-1.2 8.4 -0.1 128 0 1 1
-1.2 9.3 0.3 139 0 1 5
-1.2 10.4 1.1 142 0 1 5
-1.2 11.5 1.9 148 0 1 5
-1.2 14 2.2 139 0 1 5
-1.1 3.8 0 133 0 1 2
-1.1 3.8 0.1 139 0 1 2
-1.1 4 0 129 0 1 2
-1.1 4 0.1 133 0 1 2
-1.1 4.2 0 120 0 1 2
-1.1 4.3 0 122 0 1 2
-1.1 9.7 0.5 144 0 1 5
-1.1 10.8 1.4 149 0 1 5
-1.1 11.9 2 130 0 1 5
-1.1 12.9 2.1 142 0 1 5
-1 8.9 0 143 0 1 5
-1 10 0.7 110 0 1 5
-1 11.1 1.6 147 0 1 5
-1 12.2 2 149 0 1 5
-1 13.3 2.2 136 0 1 5
-1 14.4 2.1 141 0 1 5
-0.9 5 0 128 0 1 1
-0.9 5.4 -0.1 133 0 1 1
-0.9 5.7 -0.1 136 0 1 1
-0.9 9.3 0.1 146 0 1 5
-0.9 10.4 0.9 147 0 1 5
-0.9 11.5 1.7 146 0 1 5
-0.9 12.6 2 147 0 1 5
-0.9 13.6 2.1 143 0 1 5
-0.8 3.5 0 120 0 1 1
-0.8 3.8 0 82 0 1 1
-0.8 4.2 0 90 0 1 1
-0.8 4.6 0 147 0 1 1
-0.8 6.1 -0.1 135 0 1 1
-0.8 6.5 -0.1 130 0 1 1
-0.8 6.9 0 131 0 1 1
-0.8 7.3 0 89 0 1 1
-0.8 7.7 0 120 0 1 1
-0.8 8 0 136 0 1 1
-0.8 8.4 0 132 0 1 1
-0.8 8.8 0 117 0 1 1
-0.8 10.7 1.1 155 0 1 5
-0.8 11.8 1.8 151 0 1 5
-0.8 12.9 2 141 0 1 5
-0.8 14 2.1 143 0 1 5
-0.7 9.1 0 104 0 1 5
-0.7 9.6 0.3 131 0 1 5
-0.7 13.3 2 141 0 1 5
-0.6 10 0.5 140 0 1 5
-0.6 11.1 1.3 147 0 1 5
-0.6 12.2 1.8 146 0 1 5
-0.5 5.4 0 130 0 1 1
-0.5 5.7 0 131 0 1 1
-0.5 6.1 0 139 0 1 1
-0.5 10.3 0.7 150 0 1 5
-0.5 11.4 1.4 148 0 1 5
-0.5 12.5 1.8 141 0 1 5
-0.5 13.6 2 97 0 1 5
-0.4 3.4 0 94 0 1 1
-0.4 3.8 0 131 0 1 1
-0.4 4.2 0 130 0 1 1
-0.4 4.6 0 88 0 1 1
-0.4 5 0 137 0 1 1
-0.4 6.5 0 133 0 1 1
-0.4 6.9 0 91 0 1 1
-0.4 7.3 0 129 0 1 1
-0.4 7.7 0 133 0 1 1
-0.4 8 0 140 0 1 1
-0.4 8.4 0 133 0 1 1
-0.4 8.8 0 133 0 1 1
-0.4 9.2 0 134 0 1 1
-0.4 9.6 0.1 97 0 1 5
-0.4 10.7 0.8 156 0 1 5
-0.4 11.8 1.5 153 0 1 5
-0.4 12.9 1.8 138 0 1 5
-0.4 14 1.9 133 0 1 5
-0.3 9.9 0.2 128 0 1 5
-0.3 11 1 141 0 1 5
-0.3 12.1 1.6 142 0 1 5
-0.3 13.2 1.8 130 0 1 5
-0.3 14.3 1.8 88 0 1 5
-0.2 12.5 1.5 146 0 1 5
-0.2 13.6 1.7 147 0 1 5
-0.1 3.4 -0.1 99 0 1 1
0 3.8 0 129 0 1 1
0 4.2 0 128 0 1 1
0 4.6 0 107 0 1 1
0 5 0 149 0 1 1
-0.1 5.4 0 138 0 1 1
-0.1 5.7 0 136 0 1 1
-0.1 6.1 0 137 0 1 1
0 6.4 0 137 0 1 1
0 6.8 0 140 0 1 1
0 7.2 0 133 0 1 1
0 7.6 0 113 0 1 1
0 8 0 122 0 1 1
-0.1 8.4 0 131 0 1 1
0 8.8 0 129 0 1 1
0 9.2 0 138 0 1 1
0 9.6 0 132 0 1 1
-0.1 9.7 0.1 128 0 1 5
0 10 0 137 0 1 1
-0.1 10.3 0.4 149 0 1 5
0 10.6 0.6 147 0 1 5
-0.1 11.4 1.1 131 0 1 5
0 11.7 1.2 139 0 1 5
0 12.8 1.6 143 0 1 5
-0.1 13.9 1.7 89 0 1 5
0.1 9.9 0.1 127 0 1 5
0.1 11 0.7 153 0 1 5
0.1 12.1 1.2 129 0 1 5
0.1 13.2 1.5 145 0 1 5
0.1 14.3 1.6 154 0 1 5
0.2 10.2 0.2 140 0 1 5
0.2 11.3 0.8 143 0 1 5
0.2 12.4 1.2 142 0 1 5
0.2 13.5 1.5 151 0 1 5
0.2 14.6 1.5 149 0 1 5
0.3 3 -0.1 110 0 1 1
0.3 3.4 0 128 0 1 1
0.3 3.8 0 127 0 1 1
0.3 5.4 0 84 0 1 1
0.3 5.7 0 78 0 1 1
0.3 6.1 0 130 0 1 1
0.3 6.4 0 136 0 1 1
0.3 7.6 0 127 0 1 1
0.3 8 0 123 0 1 1
0.3 8.4 0 137 0 1 1
0.3 8.8 0 133 0 1 1
0.3 10.6 0.3 150 0 1 5
0.3 10.7 0 136 0 1 1
0.3 11.1 0 130 0 1 1
0.3 11.7 0.8 135 0 1 5
0.3 12.8 1.2 137 0 1 5
0.3 13.9 1.4 159 0 1 5
0.4 4.2 0 131 0 1 1
0.4 4.6 0 126 0 1 1
0.4 5 0 130 0 1 1
0.4 6.8 0 132 0 1 1
0.4 7.2 0 78 0 1 1
0.4 9.2 0 135 0 1 1
0.4 9.6 0 140 0 1 1
0.4 10 0 107 0 1 1
0.4 10.1 0 118 0 1 5
0.4 10.3 0 116 0 1 1
0.4 13.1 1.2 129 0 1 5
0.4 14.2 1.3 140 0 1 5
0.5 10.9 0.4 147 0 1 5
0.5 12 0.8 143 0 1 5
0.6 11.3 0.4 147 0 1 5
0.6 12.4 0.8 122 0 1 5
0.6 13.5 1.1 143 0 1 5
0.7 3 0 131 0 1 1
0.7 3.4 0 125 0 1 1
0.7 3.8 0 127 0 1 1
0.7 5.3 0.1 134 0 1 1
0.7 5.7 0 136 0 1 1
0.7 6.1 0 136 0 1 1
0.7 6.4 0 136 0 1 1
0.7 6.8 0 133 0 1 1
0.7 7.2 0 87 0 1 1
0.7 7.6 0 127 0 1 1
0.7 8 0 141 0 1 1
0.7 8.4 0 133 0 1 1
0.7 8.8 0 132 0 1 1
0.7 9.2 0 144 0 1 1
0.7 9.6 0 138 0 1 1
0.7 10 0 137 0 1 1
0.7 10.3 0 124 0 1 1
0.7 10.6 0.1 151 0 1 5
0.7 11.6 0.5 141 0 1 5
0.7 12.7 0.8 134 0 1 5
0.7 13.8 1.1 153 0 1 5
0.8 4.2 0 107 0 1 1
0.8 4.6 0 132 0 1 1
0.8 5 0 133 0 1 1
0.8 10.9 0.1 141 0 1 5
0.8 12 0.5 135 0 1 5
0.8 13.1 0.8 136 0 1 5
0.8 14.2 1 152 0 1 5
0.9 6.9 0 141 0 1 2
0.9 12.3 0.5 145 0 1 5
0.9 13.4 0.8 146 0 1 5
0.9 14.5 0.9 138 0 1 5
1 6.9 0.1 68 0 1 2
1 6.9 0.2 94 0 1 2
1 7.2 0.1 104 0 1 2
1 7.2 0.2 125 0 1 2
1 10.4 0 134 0 1 1
1 10.7 0 138 0 1 1
1 11.3 0.2 140 0 1 5
1 13.8 0.7 143 0 1 5
1 14.9 0.8 154 0 1 5
1.1 3 0 124 0 1 1
1.1 3.4 0 138 0 1 1
1.1 3.8 0 131 0 1 1
1.1 4.2 0 125 0 1 1
1.1 5 0 133 0 1 1
1.1 5.4 0.1 140 0 1 1
1.1 5.7 0 139 0 1 1
1.1 6.1 0 137 0 1 1
1.1 6.4 0 129 0 1 1
1.1 6.8 0 83 0 1 2
1.1 6.8 0.1 81 0 1 2
1.1 6.9 0.2 124 0 1 2
1.1 7.5 0.1 132 0 1 2
1.1 8 0 131 0 1 1
1.1 8.4 0 125 0 1 1
1.1 8.8 0 144 0 1 1
1.1 9.2 0 121 0 1 1
1.1 9.6 0 133 0 1 1
1.1 10 0 141 0 1 1
1.1 11.6 0.2 153 0 1 5
1.1 12.2 0 142 0 1 1
1.1 12.7 0.5 145 0 1 5
1.2 4.6 0 140 0 1 1
1.2 6.7 0 122 0 1 2
1.2 6.8 0.1 137 0 1 2
1.2 7.5 0.1 126 0 1 2
1.2 12 0.2 132 0 1 5
1.2 13 0.4 138 0 1 5
1.2 14.1 0.7 152 0 1 5
1.2 15.2 0.7 151 0 1 5
1.3 6.8 0 119 0 1 2
1.3 6.8 0.1 115 0 1 2
1.3 6.9 0.2 109 0 1 2
1.3 7 0.2 43 0 1 2
1.3 7.2 0.2 128 0 1 2
1.3 12.3 0.2 146 0 1 5
1.3 13.4 0.4 139 0 1 5
1.3 14.5 0.6 144 0 1 5
1.4 6.8 0 122 0 1 2
1.4 6.9 0.2 140 0 1 2
1.4 9.6 0 148 0 1 1
1.4 10 0.1 140 0 1 1
1.4 10.4 0 129 0 1 1
1.4 10.8 0 136 0 1 1
1.4 11.1 0 141 0 1 1
1.4 11.4 0 124 0 1 1
1.4 11.8 0 140 0 1 1
1.4 12.2 0 143 0 1 1
1.4 12.6 0 141 0 1 1
1.4 12.7 0.1 147 0 1 5
1.4 13.7 0.4 135 0 1 5
1.4 14.8 0.5 150 0 1 5
1.5 2.6 0.1 136 0 1 1
1.5 2.9 0.1 109 0 1 1
1.5 3.4 0.1 125 0 1 1
1.5 3.8 0.1 124 0 1 1
1.5 4.2 0 131 0 1 1
1.5 4.6 0 143 0 1 1
1.5 5 0 135 0 1 1
1.5 5.4 0.1 137 0 1 1
1.5 5.7 0 139 0 1 1
1.5 6 0 142 0 1 1
1.5 6.4 0 137 0 1 1
1.5 6.8 0 142 0 1 1
1.5 6.8 0.1 128 0 1 2
1.5 7 0.2 145 0 1 2
1.5 7.2 0.2 139 0 1 2
1.5 7.4 0.2 137 0 1 2
1.5 8 0 129 0 1 1
1.5 8.4 0 105 0 1 1
1.5 8.8 0 133 0 1 1
1.5 9.2 0 150 0 1 1
1.5 13 0.1 131 0 1 5
1.5 14.1 0.4 150 0 1 5
1.5 15.2 0.4 142 0 1 5
1.6 7.2 0.1 136 0 1 2
1.6 14.4 0.3 147 0 1 5
1.7 13.4 0.1 146 0 1 5
1.8 9.6 0 134 0 1 1
1.8 10 0 146 0 1 1
1.8 10.4 0 112 0 1 1
1.8 10.7 0 108 0 1 1
1.8 11.1 0 135 0 1 1
1.8 11.4 0 144 0 1 1
1.8 11.8 0 143 0 1 1
1.8 12.3 -0.1 149 0 1 1
1.8 12.6 -0.1 142 0 1 1
1.8 13 -0.1 148 0 1 1
1.8 13.4 0 131 0 1 1
1.8 13.7 0.1 145 0 1 5
1.8 14.8 0.4 147 0 1 5
1.9 2.6 0 133 0 1 1
1.9 3 0 130 0 1 1
1.9 3.4 0 132 0 1 1
1.9 3.8 0 128 0 1 1
1.9 4.2 0 128 0 1 1
1.9 4.6 0 135 0 1 1
1.9 5 0 135 0 1 1
1.9 5.3 0 139 0 1 1
1.9 5.7 0 146 0 1 1
1.9 6.1 0 147 0 1 1
1.9 6.4 0 142 0 1 1
1.9 6.8 0 147 0 1 1
1.9 7.2 0 136 0 1 1
1.9 7.6 0 143 0 1 1
1.9 8 0 141 0 1 1
1.9 8.5 0 138 0 1 1
1.9 8.9 0 148 0 1 1
1.9 9.3 0 146 0 1 1
1.9 13.8 0 135 0 1 1
1.9 14.1 0.1 140 0 1 5
1.9 15.1 0.4 143 0 1 5
2 14.4 0.2 144 0 1 5
2.1 14.8 0.2 137 0 1 5
2.2 2.7 0 112 0 1 1
2.2 9.6 0 133 0 1 1
2.2 10 0 129 0 1 1
2.2 10.4 0 145 0 1 1
2.2 10.7 0 138 0 1 1
2.2 11.1 0 138 0 1 1
2.2 11.5 0 136 0 1 1
2.2 11.9 0 129 0 1 1
2.2 12.3 -0.1 145 0 1 1
2.2 12.7 -0.1 143 0 1 1
2.2 13.1 -0.1 139 0 1 1
2.2 13.4 -0.1 128 0 1 1
2.2 13.8 0 129 0 1 1
2.2 14.2 0 138 0 1 1
2.2 14.6 0 134 0 1 1
2.2 18.8 0 152 0 1 1
2.2 19.2 0 139 0 1 1
2.3 3.1 0 124 0 1 1
2.3 3.5 0 129 0 1 1
2.3 3.9 0 123 0 1 1
2.3 4.2 0 137 0 1 1
2.3 4.6 0 134 0 1 1
2.3 5 0 135 0 1 1
2.3 5.3 0 138 0 1 1
2.3 5.7 0 142 0 1 1
2.3 6.1 -0.1 139 0 1 1
2.3 6.4 -0.1 143 0 1 1
2.3 6.8 -0.1 140 0 1 1
2.3 7.2 -0.1 149 0 1 1
2.3 7.6 0 146 0 1 1
2.3 8.1 -0.1 141 0 1 1
2.3 8.5 -0.1 130 0 1 1
2.3 8.9 -0.1 119 0 1 1
2.3 9.3 -0.1 148 0 1 1
2.3 17.6 0 149 0 1 1
2.4 9 0 96 0 1 2
2.4 14.4 0.1 130 0 1 5
2.5 8.9 0 56 0 1 2
2.5 8.9 0.1 78 0 1 2
2.5 9 -0.1 83 0 1 2
2.5 9 0.1 82 0 1 2
2.5 9.1 0.1 105 0 1 2
2.5 9.2 0 131 0 1 2
2.5 9.2 0.1 106 0 1 2
2.5 9.3 0 134 0 1 2
2.6 2.3 0 135 0 1 1
2.6 2.7 0 140 0 1 1
2.6 3.1 0 136 0 1 1
2.6 8.9 0.1 109 0 1 2
2.6 9.2 0.1 125 0 1 2
2.6 10 -0.1 121 0 1 1
2.6 10.4 -0.1 138 0 1 1
2.6 10.7 0 142 0 1 1
2.6 11.1 0 142 0 1 1
2.6 11.5 0 140 0 1 1
2.6 11.9 0 135 0 1 1
2.6 12.3 0 145 0 1 1
2.6 12.7 0 141 0 1 1
2.6 13 0 147 0 1 1
2.6 13.4 0 134 0 1 1
2.6 13.8 0 97 0 1 1
2.6 14.2 0 118 0 1 1
2.6 14.6 0 109 0 1 1
2.6 15 0 131 0 1 1
2.6 15.1 0.1 134 0 1 5
2.6 15.4 0 84 0 1 1
2.6 15.8 0 139 0 1 1
2.6 16.1 0 141 0 1 1
2.6 18 0 136 0 1 1
2.6 18.4 0 133 0 1 1
2.6 18.8 0 139 0 1 1
2.6 19.2 0 137 0 1 1
2.6 19.5 0 134 0 1 1
2.6 19.7 0 134 0 1 1
2.7 3.5 0 129 0 1 1
2.7 3.9 0 127 0 1 1
2.7 4.2 0 109 0 1 1
2.7 4.6 0 131 0 1 1
2.7 5 0 123 0 1 1
2.7 5.3 0 132 0 1 1
2.7 5.7 0 133 0 1 1
2.7 6.1 0 135 0 1 1
2.7 6.5 0 138 0 1 1
2.7 6.8 -0.1 147 0 1 1
2.7 7.2 -0.1 137 0 1 1
2.7 7.6 0 136 0 1 1
2.7 8 0 135 0 1 1
2.7 8.5 0 138 0 1 1
2.7 8.8 0 101 0 1 2
2.7 16.5 0 137 0 1 1
2.7 16.9 0 140 0 1 1
2.7 17.3 0 139 0 1 1
2.7 17.6 0 138 0 1 1
2.8 9.2 0.1 128 0 1 2
2.9 8.8 0 102 0 1 2
2.9 8.9 0 111 0 1 2
2.9 8.9 0.1 152 0 1 2
2.9 9 0.1 141 0 1 2
2.9 9.1 0.1 134 0 1 2
2.9 9.2 0.1 143 0 1 2
3 2.2 -0.1 135 0 1 1
3 2.7 -0.1 115 0 1 1
3 3.1 0 128 0 1 1
3 3.5 0 144 0 1 1
3 4.2 0 137 0 1 1
3 4.6 0 141 0 1 1
3 5 0 119 0 1 1
3 5.3 0 115 0 1 1
3 5.7 0 149 0 1 1
3 6.1 0 130 0 1 1
3 6.5 0 141 0 1 1
3 6.8 0 116 0 1 1
3 7.2 0 131 0 1 1
3 7.6 0 136 0 1 1
3 8.9 0 145 0 1 2
3 9 0 136 0 1 2
3 9 0.1 140 0 1 2
3 10.7 -0.1 126 0 1 1
3 11.1 0 144 0 1 1
3 11.5 0 148 0 1 1
3 11.9 0 140 0 1 1
3 12.3 0 137 0 1 1
3 12.6 0 113 0 1 1
3 13 0 119 0 1 1
3 13.4 0 131 0 1 1
3 13.8 0 124 0 1 1
3 14.2 0 122 0 1 1
3 14.6 0.1 133 0 1 1
3 15 0 138 0 1 1
3 15.4 0 106 0 1 1
3 15.8 0 141 0 1 1
3 17.6 0 137 0 1 1
3 18 0 137 0 1 1
3 18.4 0 134 0 1 1
3 18.8 0 133 0 1 1
3 19.2 0 135 0 1 1
3 19.6 0 97 0 1 1
3.1 3.9 0 125 0 1 1
3.1 8 0 144 0 1 1
3.1 8.4 0 127 0 1 1
3.1 8.8 0 141 0 1 1
3.1 8.9 0 141 0 1 2
3.1 9.1 0 143 0 1 2
3.1 16.2 0 145 0 1 1
3.1 16.5 0 147 0 1 1
3.1 16.9 0 139 0 1 1
3.1 17.3 0 140 0 1 1
3.3 13 0 127 0 1 1
3.3 13.4 0 128 0 1 1
3.3 13.8 0 138 0 1 1
3.3 14.2 0 134 0 1 1
3.3 14.6 0 137 0 1 1
3.3 15 0 130 0 1 1
3.4 2.3 -0.1 137 0 1 1
3.4 2.7 -0.1 113 0 1 1
3.4 3.1 -0.1 148 0 1 1
3.4 3.8 -0.1 146 0 1 1
3.4 4.5 -0.1 146 0 1 1
3.4 5.3 -0.1 154 0 1 1
3.4 6.1 0 144 0 1 1
3.4 6.5 0 127 0 1 1
3.4 6.8 0 89 0 1 1
3.4 7.2 0 135 0 1 1
3.4 7.6 0 132 0 1 1
3.4 8 -0.1 145 0 1 1
3.4 8.4 -0.1 138 0 1 1
3.4 8.8 -0.1 141 0 1 1
3.4 9.2 -0.1 144 0 1 1
3.4 9.6 -0.1 139 0 1 1
3.4 10 -0.1 135 0 1 1
3.4 10.3 -0.1 141 0 1 1
3.4 10.7 -0.1 146 0 1 1
3.4 11.1 -0.1 152 0 1 1
3.4 11.5 -0.1 131 0 1 1
3.4 11.9 0 131 0 1 1
3.4 12.3 0 142 0 1 1
3.4 12.7 0 140 0 1 1
3.4 15.3 0 136 0 1 1
3.4 15.7 0 143 0 1 1
3.4 17.3 0 138 0 1 1
3.4 17.7 0 138 0 1 1
3.4 18 0 137 0 1 1
3.4 18.4 0 135 0 1 1
3.4 18.8 0 129 0 1 1
3.4 19.2 0 141 0 1 1
3.4 19.4 0 135 0 1 1
3.5 16.1 0 143 0 1 1
3.5 16.5 0 140 0 1 1
3.5 16.9 0 134 0 1 1
3.7 5.3 -0.3 121 0 1 1
3.7 5.5 -0.2 141 0 1 1
3.7 5.7 -0.2 145 0 1 4
3.7 5.9 -0.1 132 0 1 1
3.7 6.9 0 111 0 1 1
3.7 12.3 0 127 0 1 1
3.7 12.6 0 136 0 1 1
3.7 13 0 128 0 1 1
3.7 13.4 0 135 0 1 1
3.7 13.8 -0.1 130 0 1 1
3.7 14.2 0 114 0 1 1
3.7 14.6 0 136 0 1 1
3.7 15 0 137 0 1 1
3.7 15.3 0 140 0 1 1
3.7 18.8 -0.1 139 0 1 1
3.7 19.2 -0.1 137 0 1 1
3.7 19.4 -0.1 140 0 1 1
3.7 19.6 -0.1 130 0 1 1
3.8 2.3 -0.1 141 0 1 1
3.8 2.7 -0.2 142 0 1 1
3.8 3 -0.2 111 0 1 4
3.8 3.2 -0.2 129 0 1 1
3.8 3.4 -0.2 145 0 1 4
3.8 3.6 -0.3 136 0 1 1
3.8 3.7 -0.3 147 0 1 4
3.8 3.9 -0.3 125 0 1 1
3.8 4.1 -0.3 130 0 1 1
3.8 4.3 -0.3 139 0 1 1
3.8 4.5 -0.3 143 0 1 1
3.8 4.7 -0.3 106 0 1 1
3.8 4.9 -0.3 133 0 1 4
3.8 5.1 -0.3 125 0 1 1
3.8 6.1 -0.1 137 0 1 1
3.8 6.5 0 136 0 1 1
3.8 7.2 0 94 0 1 1
3.8 7.6 0 138 0 1 1
3.8 8 -0.1 146 0 1 1
3.8 8.4 -0.1 134 0 1 1
3.8 8.8 -0.1 126 0 1 1
3.8 9.2 -0.1 129 0 1 1
3.8 9.6 -0.1 127 0 1 1
3.8 10 -0.1 122 0 1 1
3.8 10.3 -0.1 131 0 1 1
3.8 10.7 -0.1 141 0 1 1
3.8 11.1 -0.1 112 0 1 1
3.8 11.4 -0.1 146 0 1 1
3.8 11.8 -0.1 143 0 1 1
3.8 15.7 0 138 0 1 1
3.8 16.9 0 137 0 1 1
3.8 17.3 0 137 0 1 1
3.8 17.7 0 135 0 1 1
3.8 18.1 -0.1 139 0 1 1
3.8 18.5 -0.1 139 0 1 1
3.8 19.6 -0.1 129 0 1 1
3.9 6.1 -0.1 135 0 1 1
3.9 16.1 0 137 0 1 1
3.9 16.5 0 119 0 1 1
3.9 19.6 -0.1 132 0 1 1
4 3 -0.2 116 0 1 1
4.1 3 -0.3 128 0 1 4
4.1 5.7 -0.4 148 0 1 4
4.1 6.1 -0.2 130 0 1 1
4.1 13.8 -0.1 135 0 1 1
4.1 14.2 -0.1 137 0 1 1
4.1 14.6 0 136 0 1 1
4.1 15 0 132 0 1 1
4.1 15.3 0 140 0 1 1
4.2 2.3 -0.1 147 0 1 1
4.2 6.9 0 102 0 1 1
4.2 7.2 0 140 0 1 1
4.2 7.6 0 138 0 1 1
4.2 8 -0.1 140 0 1 1
4.2 8.4 -0.1 135 0 1 1
4.2 8.8 -0.1 139 0 1 1
4.2 9.2 -0.1 144 0 1 1
4.2 9.6 -0.1 110 0 1 1
4.2 10 -0.1 97 0 1 1
4.2 10.4 -0.1 139 0 1 1
4.2 10.7 -0.1 133 0 1 1
4.2 11.1 -0.1 140 0 1 1
4.2 11.5 -0.1 144 0 1 1
4.2 11.9 -0.1 143 0 1 1
4.2 12.3 0 144 0 1 1
4.2 12.7 -0.1 150 0 1 1
4.2 13 -0.1 149 0 1 1
4.2 13.4 -0.1 131 0 1 1
4.2 15.7 0 141 0 1 1
4.2 16.1 0 139 0 1 1
4.2 16.5 0 133 0 1 1
4.2 16.9 0 135 0 1 1
4.2 17.3 0 132 0 1 1
4.2 17.7 0 136 0 1 1
4.2 18.1 -0.1 137 0 1 1
4.2 18.5 -0.1 135 0 1 1
4.2 18.8 -0.1 137 0 1 1
4.2 19.2 -0.1 137 0 1 1
4.2 19.5 -0.1 134 0 1 1
4.3 6.1 -0.2 121 0 1 1
4.5 5.6 -0.6 144 0 1 4
4.5 6.1 -0.3 130 0 1 1
4.5 8.8 -0.1 142 0 1 1
4.5 9.2 0 145 0 1 1
4.6 2.2 -0.1 149 0 1 1
4.6 2.6 -0.2 137 0 1 1
4.6 6.5 -0.1 121 0 1 1
4.6 6.9 0 141 0 1 1
4.6 7.2 0 139 0 1 1
4.6 7.6 -0.1 137 0 1 1
4.6 8 -0.1 146 0 1 1
4.6 8.4 -0.1 136 0 1 1
4.6 8.9 -0.1 139 0 1 2
4.6 9.6 0 126 0 1 1
4.6 10 0 135 0 1 1
4.6 10.4 0 127 0 1 1
4.6 10.8 -0.1 142 0 1 1
4.6 11.2 -0.1 143 0 1 1
4.6 11.5 -0.1 145 0 1 1
4.6 11.9 -0.1 138 0 1 1
4.6 12.3 -0.1 143 0 1 1
4.6 12.7 -0.1 146 0 1 1
4.6 13 -0.1 143 0 1 1
4.6 13.4 -0.1 135 0 1 1
4.6 13.8 -0.1 127 0 1 1
4.6 14.2 -0.1 117 0 1 1
4.6 14.6 0 137 0 1 1
4.6 15 0 132 0 1 1
4.6 15.3 0 141 0 1 1
4.6 15.7 0 140 0 1 1
4.6 16.1 0 125 0 1 1
4.6 16.5 0 134 0 1 1
4.6 17.3 0 138 0 1 1
4.6 17.7 -0.1 136 0 1 1
4.6 18.1 -0.1 135 0 1 1
4.6 18.5 -0.1 132 0 1 1
4.6 18.8 -0.1 136 0 1 1
4.6 19.2 -0.1 137 0 1 1
4.7 2.9 -0.4 98 0 1 1
4.7 6.1 -0.3 141 0 1 1
4.7 8.9 0 50 0 1 2
4.7 8.9 0.1 43 0 1 2
4.7 9 0 50 0 1 2
4.7 16.9 0 143 0 1 1
4.8 8.8 0 82 0 1 2
4.8 9 0.2 94 0 1 2
4.8 9.2 0.1 65 0 1 2
4.8 9.3 0.1 122 0 1 2
4.8 19.2 -0.1 133 0 1 1
4.9 2.9 -0.3 119 0 1 1
4.9 3.3 -0.6 103 0 1 4
4.9 4 -0.8 104 0 1 4
4.9 4.4 -0.8 101 0 1 4
4.9 4.8 -0.8 111 0 1 4
4.9 5.2 -0.8 137 0 1 4
4.9 5.6 -0.6 141 0 1 4
4.9 6.1 -0.3 144 0 1 4
4.9 8.7 0 127 0 1 2
4.9 8.8 0 91 0 1 2
4.9 8.8 0.1 105 0 1 2
4.9 8.9 0.2 122 0 1 2
4.9 9.5 0 83 0 1 2
4.9 9.5 0.1 107 0 1 2
5 6.9 -0.1 138 0 1 1
5 7.3 -0.1 144 0 1 1
5 7.6 -0.1 143 0 1 1
5 8 0 139 0 1 1
5 8.4 0 146 0 1 1
5 8.8 0 146 0 1 2
5 9 0.2 131 0 1 2
5 9.5 0.1 113 0 1 2
5 10 0 141 0 1 1
5 10.4 0 126 0 1 1
5 10.8 0 133 0 1 1
5 11.2 0 139 0 1 1
5 11.5 0 143 0 1 1
5 11.9 0 115 0 1 1
5 12.3 0 137 0 1 1
5 12.7 -0.1 117 0 1 1
5 13 -0.1 142 0 1 1
5 13.4 -0.1 132 0 1 1
5 13.8 -0.1 133 0 1 1
5 14.2 -0.1 134 0 1 1
5 14.6 0 135 0 1 1
5 15 0 137 0 1 1
5 15.3 0 134 0 1 1
5 15.7 0 134 0 1 1
5 16.1 0 136 0 1 1
5 16.5 0 137 0 1 1
5 17.3 0 139 0 1 1
5 17.7 0 131 0 1 1
5 18.1 0 133 0 1 1
5 18.4 0 133 0 1 1
5 19.2 0 122 0 1 1
5.1 3 -0.3 114 0 1 1
5.1 6.1 -0.3 149 0 1 1
5.1 8.8 0 120 0 1 2
5.1 8.9 0.1 112 0 1 2
5.1 8.9 0.2 145 0 1 2
5.1 16.9 0 140 0 1 1
5.2 8.8 0 113 0 1 2
5.2 8.8 0.1 128 0 1 2
5.2 9 0.2 128 0 1 2
5.2 9.4 0.2 133 0 1 2
5.2 19.2 0 121 0 1 1
5.3 2.6 -0.2 127 0 1 1
5.3 3 -0.3 114 0 1 1
5.3 3.3 -0.6 105 0 1 4
5.3 3.7 -0.8 113 0 1 4
5.3 4.1 -0.8 109 0 1 4
5.3 4.4 -0.8 105 0 1 4
5.3 4.8 -0.8 116 0 1 4
5.3 5.2 -0.8 133 0 1 4
5.3 5.7 -0.6 144 0 1 4
5.3 6.1 -0.3 152 0 1 4
5.3 6.5 -0.2 155 0 1 1
5.3 6.9 -0.1 148 0 1 1
5.3 8.8 0 137 0 1 1
5.3 9.3 0.2 153 0 1 2
5.4 7.3 -0.1 124 0 1 1
5.4 7.7 0 130 0 1 1
5.4 8.1 0 122 0 1 1
5.4 8.4 0 145 0 1 1
5.4 10.4 0 142 0 1 1
5.4 10.8 0 139 0 1 1
5.4 11.2 0 108 0 1 1
5.4 11.5 0 130 0 1 1
5.4 11.9 0 116 0 1 1
5.4 12.3 0 129 0 1 1
5.4 12.7 0 115 0 1 1
5.4 13.1 0 108 0 1 1
5.4 13.4 -0.1 118 0 1 1
5.4 13.8 -0.1 125 0 1 1
5.4 14.2 0 136 0 1 1
5.4 14.6 0 133 0 1 1
5.4 15 0 127 0 1 1
5.4 15.3 0 138 0 1 1
5.4 15.7 0 139 0 1 1
5.4 16.2 -0.1 136 0 1 1
5.4 16.5 -0.1 133 0 1 1
5.4 16.9 -0.1 140 0 1 1
5.4 17.3 0 142 0 1 1
5.4 17.7 0 134 0 1 1
5.4 18.1 0 132 0 1 1
5.4 18.4 0 136 0 1 1
5.4 18.8 0 137 0 1 1
5.4 19.1 0 121 0 1 1
5.5 3 -0.3 103 0 1 1
5.5 6.1 -0.4 143 0 1 1
5.7 3 -0.3 121 0 1 1
5.7 3.3 -0.5 93 0 1 4
5.7 3.7 -0.8 106 0 1 4
5.7 4.1 -0.8 118 0 1 4
5.7 4.5 -0.8 115 0 1 4
5.7 4.8 -0.8 122 0 1 4
5.7 5.2 -0.8 131 0 1 4
5.7 5.6 -0.7 133 0 1 4
5.7 6.1 -0.5 122 0 1 4
5.7 6.9 -0.2 152 0 1 1
5.7 8.8 0 146 0 1 1
5.7 9.2 0 146 0 1 1
5.7 9.6 0 125 0 1 1
5.7 18.4 0 137 0 1 1
5.8 7.3 -0.1 118 0 1 1
5.8 7.7 -0.1 116 0 1 1
5.8 8.1 0 141 0 1 1
5.8 8.5 0 138 0 1 1
5.8 10.8 0 128 0 1 1
5.8 11.2 0 152 0 1 1
5.8 11.5 0 146 0 1 1
5.8 11.9 0 142 0 1 1
5.8 12.3 0 139 0 1 1
5.8 12.7 0 143 0 1 1
5.8 13 0 144 0 1 1
5.8 13.4 0 144 0 1 1
5.8 13.8 0 139 0 1 1
5.8 14.2 0 134 0 1 1
5.8 14.6 0 129 0 1 1
5.8 14.9 0 131 0 1 1
5.8 15.3 0 139 0 1 1
5.8 15.7 0 141 0 1 1
5.8 16.1 -0.1 136 0 1 1
5.8 16.5 -0.1 126 0 1 1
5.8 16.9 -0.1 140 0 1 1
5.8 17.3 -0.1 138 0 1 1
5.8 17.7 0 141 0 1 1
5.8 18.1 0 141 0 1 1
5.8 19 0 89 0 1 1
5.9 3 -0.3 104 0 1 1
5.9 6.2 -0.5 130 0 1 1
6 3.4 -0.5 82 0 1 4
6 3.7 -0.8 93 0 1 4
6 4.1 -0.8 109 0 1 4
6.1 3 -0.3 109 0 1 4
6.1 4.5 -0.9 121 0 1 4
6.1 4.9 -0.8 116 0 1 4
6.1 5.3 -0.8 117 0 1 4
6.1 5.6 -0.8 110 0 1 4
6.1 6 -0.8 124 0 1 4
6.1 6.4 -0.5 131 0 1 1
6.1 6.6 -0.4 134 0 1 1
6.1 6.9 -0.3 147 0 1 1
6.1 8.5 0 145 0 1 1
6.1 8.8 0 144 0 1 1
6.1 9.2 -0.1 122 0 1 1
6.1 9.6 -0.1 109 0 1 1
6.1 9.9 -0.1 114 0 1 1
6.1 10.3 -0.1 110 0 1 1
6.1 10.7 -0.1 145 0 1 1
6.1 11.1 -0.1 145 0 1 1
6.1 11.6 0 146 0 1 1
6.1 11.9 0 152 0 1 1
6.1 12.3 0 142 0 1 1
6.1 12.6 0 110 0 1 1
6.1 13 0 121 0 1 1
6.1 13.4 0 134 0 1 1
6.1 13.8 0 134 0 1 1
6.1 14.2 0 137 0 1 1
6.1 14.6 0 147 0 1 1
6.1 14.9 0 126 0 1 1
6.1 18.1 -0.1 141 0 1 1
6.1 18.4 0 131 0 1 1
6.1 18.7 -0.1 92 0 1 1
6.1 18.9 -0.1 114 0 1 1
6.2 7.3 -0.2 151 0 1 1
6.2 7.7 -0.1 154 0 1 1
6.2 8.1 -0.1 146 0 1 1
6.2 15.3 0 134 0 1 1
6.2 15.7 -0.1 137 0 1 1
6.2 16.1 -0.1 134 0 1 1
6.2 16.5 -0.1 136 0 1 1
6.2 16.9 -0.1 139 0 1 1
6.2 17.3 -0.1 134 0 1 1
6.2 17.7 -0.1 139 0 1 1
6.3 6.9 -0.3 139 0 1 1
6.4 3.7 -0.6 76 0 1 4
6.5 3.4 -0.4 89 0 1 4
6.5 4.1 -0.6 72 0 1 4
6.5 4.5 -0.6 98 0 1 4
6.5 4.9 -0.6 96 0 1 4
6.5 5.3 -0.6 93 0 1 4
6.5 5.6 -0.6 93 0 1 4
6.5 6 -0.6 93 0 1 4
6.5 6.4 -0.4 110 0 1 4
6.5 6.9 -0.2 129 0 1 4
6.5 8.1 -0.1 144 0 1 1
6.5 8.5 -0.1 146 0 1 1
6.5 8.8 -0.1 83 0 1 1
6.5 9.2 -0.1 132 0 1 1
6.5 9.6 -0.1 139 0 1 1
6.5 9.9 -0.1 139 0 1 1
6.5 10.3 -0.1 146 0 1 1
6.5 10.7 -0.1 140 0 1 1
6.5 11.2 -0.1 142 0 1 1
6.5 11.6 -0.1 128 0 1 1
6.5 11.9 -0.1 135 0 1 1
6.5 12.3 -0.1 138 0 1 1
6.5 12.6 -0.1 149 0 1 1
6.5 13 -0.1 149 0 1 1
6.5 13.4 -0.1 136 0 1 1
6.5 13.8 0 133 0 1 1
6.5 14.2 0 139 0 1 1
6.5 14.6 -0.1 140 0 1 1
6.5 15 0 125 0 1 1
6.5 15.7 -0.1 130 0 1 1
6.5 16.1 -0.1 130 0 1 1
6.5 16.5 -0.1 133 0 1 1
6.5 16.9 -0.1 139 0 1 1
6.5 17.3 -0.1 138 0 1 1
6.5 17.7 -0.1 141 0 1 1
6.5 18.1 -0.1 139 0 1 1
6.5 18.5 -0.1 107 0 1 1
6.5 18.6 -0.1 119 0 1 1
6.5 18.8 -0.1 126 0 1 1
6.6 7.7 -0.1 146 0 1 1
6.6 15.4 0 135 0 1 1
6.7 6.8 -0.2 114 0 1 1
6.9 3.5 -0.3 86 0 1 1
6.9 3.7 -0.3 102 0 1 4
6.9 3.9 -0.3 104 0 1 1
6.9 4.1 -0.4 105 0 1 1
6.9 4.4 -0.4 97 0 1 1
6.9 4.6 -0.4 114 0 1 4
6.9 4.7 -0.4 116 0 1 1
6.9 4.9 -0.4 102 0 1 4
6.9 5.1 -0.4 96 0 1 1
6.9 5.3 -0.4 105 0 1 4
6.9 5.5 -0.4 98 0 1 1
6.9 5.6 -0.4 102 0 1 4
6.9 5.8 -0.4 95 0 1 1
6.9 6 -0.4 101 0 1 4
6.9 6.2 -0.3 130 0 1 1
6.9 6.4 -0.3 115 0 1 4
6.9 6.6 -0.2 134 0 1 1
6.9 6.8 -0.2 135 0 1 4
6.9 7.2 -0.2 139 0 1 1
6.9 7.7 -0.2 144 0 1 1
6.9 8.1 -0.1 150 0 1 1
6.9 8.5 -0.1 144 0 1 1
6.9 8.9 -0.1 138 0 1 1
6.9 9.2 -0.1 139 0 1 1
6.9 9.6 -0.1 118 0 1 1
6.9 9.9 -0.1 146 0 1 1
6.9 10.3 -0.1 142 0 1 1
6.9 10.7 -0.1 133 0 1 1
6.9 11.2 -0.1 146 0 1 1
6.9 11.6 -0.1 150 0 1 1
6.9 11.9 -0.1 124 0 1 1
6.9 12.3 -0.1 109 0 1 1
6.9 12.6 -0.1 144 0 1 1
6.9 13 -0.1 137 0 1 1
6.9 13.4 -0.1 149 0 1 1
6.9 13.8 0 134 0 1 1
6.9 14.2 -0.1 137 0 1 1
6.9 14.6 -0.1 139 0 1 1
6.9 15 -0.1 128 0 1 1
6.9 15.8 -0.1 133 0 1 1
6.9 16.1 -0.1 125 0 1 1
6.9 16.5 -0.1 137 0 1 1
6.9 16.9 -0.1 137 0 1 1
6.9 17.3 -0.1 133 0 1 1
6.9 17.7 -0.2 133 0 1 1
6.9 18.1 -0.1 137 0 1 1
6.9 18.5 -0.1 104 0 1 1
6.9 18.6 -0.1 101 0 1 1
7 15.4 -0.1 141 0 1 1
7.2 3.7 -0.2 134 0 1 1
7.2 4.5 -0.3 131 0 1 1
7.2 18.5 -0.1 131 0 1 1
7.3 5.3 -0.2 106 0 1 1
7.3 6 -0.2 134 0 1 1
7.3 6.8 -0.2 138 0 1 1
7.3 7.2 -0.1 138 0 1 1
7.3 7.6 -0.1 126 0 1 1
7.3 8.1 -0.1 126 0 1 1
7.3 8.5 -0.1 153 0 1 1
7.3 8.9 -0.1 138 0 1 1
7.3 9.2 -0.1 144 0 1 1
7.3 9.6 -0.1 131 0 1 1
7.3 10 -0.1 141 0 1 1
7.3 10.3 -0.1 110 0 1 1
7.3 10.7 0 139 0 1 1
7.3 11.2 -0.1 143 0 1 1
7.3 11.6 -0.1 129 0 1 1
7.3 11.9 -0.1 134 0 1 1
7.3 12.3 -0.1 134 0 1 1
7.3 12.6 -0.1 145 0 1 1
7.3 13 -0.1 117 0 1 1
7.3 13.4 -0.1 117 0 1 1
7.3 13.8 -0.1 132 0 1 1
7.3 14.2 -0.1 139 0 1 1
7.3 14.6 -0.1 141 0 1 1
7.3 15 -0.1 133 0 1 1
7.3 15.4 -0.1 131 0 1 1
7.3 15.7 -0.1 138 0 1 1
7.3 16.1 -0.1 129 0 1 1
7.3 16.5 -0.1 129 0 1 1
7.3 16.9 -0.1 136 0 1 1
7.3 17.3 -0.1 132 0 1 1
7.3 17.7 -0.1 134 0 1 1
7.4 6 -0.1 120 0 1 5
7.5 5.1 0 115 0 1 5
7.5 5.7 -0.1 121 0 1 5
7.5 18.4 -0.1 129 0 1 1
7.5 18.5 -0.1 119 0 1 1
7.6 4.1 -0.1 136 0 1 1
7.6 4.5 -0.1 142 0 1 5
7.6 4.9 -0.1 110 0 1 1
7.6 5.3 -0.1 135 0 1 1
7.6 6.1 -0.1 136 0 1 1
7.6 6.5 -0.1 144 0 1 1
7.6 6.6 0 123 0 1 5
7.6 7.2 -0.1 126 0 1 1
7.6 7.6 -0.1 144 0 1 1
7.6 8 -0.1 140 0 1 1
7.6 8.5 -0.1 138 0 1 1
7.6 8.8 -0.1 139 0 1 1
7.6 9.6 -0.1 145 0 1 1
7.6 10 0 146 0 1 1
7.6 10.4 0 143 0 1 1
7.6 11.1 0 133 0 1 1
7.6 11.5 -0.1 144 0 1 1
7.6 11.9 -0.1 143 0 1 1
7.6 12.3 -0.1 137 0 1 1
7.6 12.6 -0.1 123 0 1 1
7.6 13 -0.1 137 0 1 1
7.6 16.5 -0.1 140 0 1 1
7.6 16.9 -0.1 135 0 1 1
7.6 17.3 -0.1 136 0 1 1
7.6 17.7 -0.1 139 0 1 1
7.6 18 -0.1 138 0 1 1
7.6 18.4 -0.1 107 0 1 1
7.7 5.4 0.1 105 0 1 5
7.7 6 0 101 0 1 5
7.7 6.8 -0.1 134 0 1 1
7.7 9.2 -0.1 113 0 1 1
7.7 10.7 0 138 0 1 1
7.7 13.4 -0.1 132 0 1 1
7.7 13.8 -0.1 119 0 1 1
7.7 14.2 -0.1 133 0 1 1
7.7 14.6 -0.1 122 0 1 1
7.7 15 -0.1 133 0 1 1
7.7 15.3 -0.1 135 0 1 1
7.7 15.7 -0.1 135 0 1 1
7.7 16.1 -0.1 134 0 1 1
7.8 4.8 0.1 106 0 1 5
7.8 6.9 0 113 0 1 5
7.9 4.3 0.1 110 0 1 5
7.9 5.7 0.2 98 0 1 5
7.9 6.3 0.1 87 0 1 5
8 5.2 0.3 98 0 1 5
8 7.2 0 100 0 1 5
8 7.6 0 141 0 1 1
8 8 0 111 0 1 1
8 8.5 0 137 0 1 1
8 8.9 -0.1 145 0 1 1
8 9.3 -0.1 144 0 1 1
8 9.6 -0.1 139 0 1 1
8 10 -0.1 137 0 1 1
8 10.4 0 150 0 1 1
8 10.7 0 143 0 1 1
8 11.1 0 140 0 1 1
8 11.5 -0.1 122 0 1 1
8 11.9 -0.1 130 0 1 1
8 12.3 -0.1 128 0 1 1
8 12.6 -0.1 144 0 1 1
8 13 -0.1 140 0 1 1
8 13.4 -0.1 113 0 1 1
8 13.8 -0.1 134 0 1 1
8 15.7 -0.1 138 0 1 1
8 16.1 -0.1 135 0 1 1
8 16.5 0 143 0 1 1
8 16.9 0 134 0 1 1
8 17.3 0 135 0 1 1
8 17.7 0 134 0 1 1
8 17.9 0 139 0 1 1
8 18.2 0 125 0 1 1
8.1 4.6 0.3 116 0 1 5
8.1 6 0.3 115 0 1 5
8.1 6.6 0.1 89 0 1 5
8.1 14.2 -0.1 143 0 1 1
8.1 14.6 -0.1 141 0 1 1
8.1 15 -0.1 131 0 1 1
8.1 15.3 -0.1 127 0 1 1
8.2 5.5 0.4 108 0 1 5
8.2 6.9 0.1 117 0 1 5
8.2 7.5 0 113 0 1 5
8.3 4.9 0.4 117 0 1 5
8.3 6.4 0.3 119 0 1 5
8.4 4.3 0.4 121 0 1 5
8.4 5.8 0.4 106 0 1 5
8.4 7.2 0.1 121 0 1 5
8.4 7.8 0 134 0 1 5
8.4 8 0 150 0 1 1
8.4 8.5 0 139 0 1 1
8.4 8.9 0 143 0 1 1
8.4 9.3 -0.1 125 0 1 1
8.4 9.7 -0.1 136 0 1 1
8.4 10 -0.1 128 0 1 1
8.4 10.4 -0.1 144 0 1 1
8.4 10.7 0 154 0 1 1
8.4 11.1 -0.1 148 0 1 1
8.4 11.5 -0.1 148 0 1 1
8.4 11.9 -0.1 144 0 1 1
8.4 12.3 -0.1 134 0 1 1
8.4 12.6 0 139 0 1 1
8.4 13 0 140 0 1 1
8.4 13.4 -0.1 128 0 1 1
8.4 13.9 -0.1 137 0 1 1
8.4 14.2 -0.1 134 0 1 1
8.4 14.6 -0.1 136 0 1 1
8.4 15 -0.1 125 0 1 1
8.4 15.8 -0.1 129 0 1 1
8.4 16.2 0 137 0 1 1
8.4 16.6 0 141 0 1 1
8.4 16.9 0 140 0 1 1
8.4 17.3 0 129 0 1 1
8.4 17.7 0 119 0 1 1
8.4 17.9 0 119 0 1 1
8.4 18 0 119 0 1 1
8.5 4.7 0.6 117 0 1 5
8.5 5.2 0.5 119 0 1 5
8.5 6.7 0.3 130 0 1 5
8.5 15.4 -0.1 134 0 1 1
8.6 6.1 0.4 133 0 1 5
8.6 7.6 0.2 116 0 1 5
8.6 8.1 0 107 0 1 5
8.7 5 0.7 114 0 1 5
8.7 5.5 0.6 118 0 1 5
8.7 7 0.3 112 0 1 5
8.7 8.4 0.1 99 0 1 5
8.7 16.9 0 132 0 1 1
8.7 17.7 0 135 0 1 1
8.7 17.8 0 129 0 1 1
8.8 6.4 0.5 120 0 1 5
8.8 7.9 0.2 104 0 1 5
8.8 8.9 0 144 0 1 1
8.8 9.3 -0.1 142 0 1 1
8.8 9.7 -0.1 86 0 1 1
8.8 10 -0.1 127 0 1 1
8.8 10.4 -0.1 126 0 1 1
8.8 10.8 0 109 0 1 1
8.8 11.1 -0.1 122 0 1 1
8.8 11.5 -0.1 148 0 1 1
8.8 11.9 -0.1 137 0 1 1
8.8 12.3 -0.1 108 0 1 1
8.8 12.7 0 154 0 1 1
8.8 13 0 132 0 1 1
8.8 13.5 0 139 0 1 1
8.8 13.9 -0.1 136 0 1 1
8.8 14.3 -0.1 137 0 1 1
8.8 14.6 -0.1 131 0 1 1
8.8 15 -0.1 129 0 1 1
8.8 15.4 -0.1 112 0 1 1
8.8 15.8 0 121 0 1 1
8.8 16.2 0 138 0 1 1
8.8 16.6 0 148 0 1 1
8.9 5.3 0.8 115 0 1 5
8.9 5.9 0.6 115 0 1 5
8.9 7.3 0.4 113 0 1 5
8.9 8.8 0 116 0 1 5
8.9 10.8 0 108 0 1 5
9 4.7 0.8 118 0 1 5
9 6.2 0.7 110 0 1 5
9 6.7 0.5 115 0 1 5
9 8.2 0.3 110 0 1 5
9 10.2 -0.1 135 0 1 5
9 17.7 0 122 0 1 1
9.1 5.6 0.8 110 0 1 5
9.1 7.6 0.5 105 0 1 5
9.1 9.1 0 132 0 1 5
9.1 11.1 0 120 0 1 5
9.1 15.8 0 135 0 1 1
9.1 16.2 0 137 0 1 1
9.1 16.6 0 142 0 1 1
9.1 16.9 0.1 129 0 1 1
9.1 17.3 0 109 0 1 1
9.1 17.6 0 130 0 1 1
9.2 5 0.9 119 0 1 5
9.2 6.5 0.7 104 0 1 5
9.2 7.1 0.6 104 0 1 5
9.2 8.5 0.2 122 0 1 5
9.2 9.3 -0.1 132 0 1 1
9.2 9.7 -0.1 130 0 1 1
9.2 10.1 -0.1 143 0 1 1
9.2 10.5 0 128 0 1 5
9.2 11.9 -0.1 148 0 1 1
9.2 12 -0.1 146 0 1 5
9.2 12.3 -0.1 151 0 1 1
9.2 12.7 0 151 0 1 1
9.2 13.1 0 134 0 1 1
9.2 13.5 0 131 0 1 1
9.2 13.9 0 124 0 1 1
9.2 14.3 0 122 0 1 1
9.2 14.7 0 134 0 1 1
9.2 15 0 122 0 1 1
9.2 15.4 -0.1 123 0 1 1
9.3 5.9 0.9 109 0 1 5
9.3 7.9 0.5 117 0 1 5
9.3 11.4 0.1 120 0 1 5
9.4 5.3 1 117 0 1 5
9.4 6.8 0.8 115 0 1 5
9.4 7.4 0.7 115 0 1 5
9.4 10.3 0 127 0 1 5
9.4 10.8 0.1 127 0 1 5
9.5 6.2 0.9 110 0 1 5
9.5 7.7 0.8 92 0 1 5
9.5 8.2 0.4 120 0 1 5
9.5 11.7 0.1 126 0 1 5
9.5 13.9 0 144 0 1 1
9.5 16.2 0 137 0 1 1
9.5 16.6 0 143 0 1 1
9.5 17 0 142 0 1 1
9.5 17.2 0 131 0 1 1
9.5 17.4 0 98 0 1 1
9.6 5.7 1.1 112 0 1 5
9.6 7.1 0.9 115 0 1 5
9.6 9.1 0 117 0 1 5
9.6 9.7 -0.1 136 0 1 1
9.6 10 -0.1 139 0 1 1
9.6 10.6 0.1 127 0 1 5
9.6 11.2 0.2 98 0 1 5
9.6 12.3 -0.1 133 0 1 1
9.6 12.7 0 144 0 1 1
9.6 13.1 0 135 0 1 1
9.6 13.5 0 136 0 1 1
9.6 14.3 0 139 0 1 1
9.6 14.7 0 131 0 1 1
9.6 15 0 131 0 1 1
9.6 15.4 -0.1 130 0 1 1
9.6 15.8 0 137 0 1 1
9.7 5.1 1.2 128 0 1 5
9.7 6.5 1 105 0 1 5
9.7 8 0.7 102 0 1 5
9.7 12 0 128 0 1 5
9.8 5.4 1.3 126 0 1 5
9.8 6 1.2 114 0 1 5
9.8 7.4 0.9 113 0 1 5
9.8 10.9 0.2 134 0 1 5
9.8 11.5 0.2 123 0 1 5
9.9 6.9 1.1 119 0 1 5
9.9 10.3 0 135 0 1 5
9.9 11.8 0.2 124 0 1 5
9.9 12.4 0 128 0 1 5
9.9 13.9 0 144 0 1 1
9.9 14.3 0 139 0 1 1
9.9 16.6 0 136 0 1 1
9.9 17 -0.1 137 0 1 1
9.9 17.2 0 97 0 1 1
10 5.7 1.4 119 0 1 5
10 6.3 1.2 117 0 1 5
10 7.7 1 122 0 1 5
10 9.6 -0.1 143 0 1 1
10 9.8 -0.1 149 0 1 5
10 10 -0.1 141 0 1 1
10 11.2 0.4 131 0 1 5
10 12.7 0 133 0 1 1
10 13.1 0 136 0 1 1
10 13.5 0 133 0 1 1
10 14.7 0 132 0 1 1
10 15.1 0 131 0 1 1
10 15.4 -0.1 126 0 1 1
10 15.8 0 141 0 1 1
10 16.2 0 142 0 1 1
10.1 5.1 1.4 155 0 1 5
10.1 7.2 1.1 117 0 1 5
10.1 10.6 0.2 132 0 1 5
10.1 12.1 0.1 116 0 1 5
10.1 17.1 0 106 0 1 1
10.2 6 1.4 139 0 1 5
10.2 6.6 1.2 125 0 1 5
10.2 8.1 0.9 109 0 1 5
10.2 9.5 0 125 0 1 5
10.2 10.1 0 138 0 1 5
10.2 11.5 0.3 136 0 1 5
10.3 5.5 1.5 140 0 1 5
10.3 7.5 1.1 125 0 1 5
10.3 11 0.3 140 0 1 5
10.3 12.4 0.1 120 0 1 5
10.3 13.9 0 150 0 1 1
10.4 6.3 1.4 126 0 1 5
10.4 6.9 1.2 126 0 1 5
10.4 8.4 0.7 106 0 1 5
10.4 9.8 0.1 130 0 1 5
10.4 10.4 0.1 151 0 1 5
10.4 11.8 0.3 139 0 1 5
10.4 13.1 -0.1 136 0 1 1
10.4 13.5 0 139 0 1 1
10.4 14.3 0 139 0 1 1
10.4 14.6 0 127 0 1 1
10.4 15 -0.1 127 0 1 1
10.4 15.4 -0.1 131 0 1 1
10.4 15.8 -0.1 135 0 1 1
10.4 16.1 -0.1 139 0 1 1
10.4 16.9 -0.1 113 0 1 1
10.5 5.8 1.5 134 0 1 5
10.5 7.2 1.3 104 0 1 5
10.5 7.8 1.2 122 0 1 5
10.5 9.3 0.2 124 0 1 5
10.5 11.3 0.5 123 0 1 5
10.6 6.7 1.3 134 0 1 5
10.6 10.1 0.1 133 0 1 5
10.6 10.7 0.3 140 0 1 5
10.6 12.2 0.2 131 0 1 5
10.6 16.8 -0.1 128 0 1 1
10.7 6.1 1.5 127 0 1 5
10.7 7.5 1.3 132 0 1 5
10.7 8.1 1 125 0 1 5
10.7 9.6 0.2 126 0 1 5
10.7 11 0.4 145 0 1 5
10.7 11.6 0.4 107 0 1 5
10.7 13.8 -0.1 158 0 1 1
10.7 16.8 -0.1 103 0 1 1
10.8 5.5 1.6 161 0 1 5
10.8 7 1.4 136 0 1 5
10.8 9 0.5 97 0 1 5
10.8 10.5 0.3 132 0 1 5
10.8 13.4 -0.1 121 0 1 1
10.8 14.2 -0.1 133 0 1 1
10.8 14.6 0 138 0 1 1
10.8 15 -0.1 134 0 1 1
10.8 15.3 -0.1 127 0 1 1
10.8 15.7 -0.1 132 0 1 1
10.8 16.1 -0.1 134 0 1 1
10.8 16.4 -0.1 140 0 1 1
10.9 6.4 1.5 134 0 1 5
10.9 7.9 1.3 133 0 1 5
10.9 8.4 0.9 119 0 1 5
10.9 9.9 0.3 85 0 1 5
10.9 11.3 0.5 109 0 1 5
10.9 11.9 0.3 137 0 1 5
10.9 16.7 -0.1 129 0 1 1
11 5.8 1.6 151 0 1 5
11 7.3 1.4 125 0 1 5
11 8.7 0.8 116 0 1 5
11 9.3 0.4 76 0 1 5
11 10.8 0.4 131 0 1 5
11.1 6.7 1.5 134 0 1 5
11.1 8.2 1.2 137 0 1 5
11.1 10.2 0.3 118 0 1 5
11.1 13.8 -0.1 148 0 1 1
11.1 14.2 -0.1 139 0 1 1
11.1 14.6 -0.1 140 0 1 1
11.1 14.9 -0.1 132 0 1 1
11.1 15.3 -0.1 122 0 1 1
11.1 15.7 -0.1 125 0 1 1
11.1 16.1 -0.1 134 0 1 1
11.1 16.6 -0.1 121 0 1 1
11.2 6.2 1.6 150 0 1 5
11.2 7.6 1.4 143 0 1 5
11.2 9.1 0.7 121 0 1 5
11.2 9.6 0.4 123 0 1 5
11.2 11.1 0.5 145 0 1 5
11.2 16.4 -0.1 112 0 1 1
11.3 6.5 1.6 135 0 1 5
11.3 7 1.5 133 0 1 5
11.3 8.5 1.2 126 0 1 5
11.3 10.5 0.4 138 0 1 5
11.4 5.9 1.6 158 0 1 5
11.4 7.9 1.4 119 0 1 5
11.4 9.4 0.7 108 0 1 5
11.4 9.9 0.5 125 0 1 5
11.4 11.4 0.5 95 0 1 5
11.4 15.7 -0.1 136 0 1 1
11.4 16.1 -0.1 133 0 1 1
11.4 16.2 -0.1 110 0 1 1
11.4 16.3 -0.1 109 0 1 1
11.5 6.8 1.6 134 0 1 5
11.5 7.4 1.5 137 0 1 5
11.5 8.8 1 121 0 1 5
11.5 10.8 0.5 142 0 1 5
11.5 13.8 -0.1 141 0 1 1
11.5 14.2 -0.1 138 0 1 1
11.5 14.5 -0.1 137 0 1 1
11.5 14.9 -0.1 135 0 1 1
11.5 15.3 -0.1 139 0 1 1
11.6 6.2 1.7 118 0 1 5
11.6 8.2 1.3 121 0 1 5
11.6 9.7 0.7 130 0 1 5
11.6 10.3 0.5 128 0 1 5
11.6 16.1 -0.1 107 0 1 1
11.7 7.1 1.6 132 0 1 5
11.7 7.7 1.5 132 0 1 5
11.7 9.1 1 114 0 1 5
11.7 10.6 0.6 113 0 1 5
11.7 11.1 0.5 128 0 1 5
11.7 16.1 -0.1 105 0 1 1
11.8 6.5 1.7 133 0 1 5
11.8 8 1.5 132 0 1 5
11.8 8.6 1.3 102 0 1 5
11.8 10 0.7 122 0 1 5
11.8 13.8 0 128 0 1 1
11.8 14.2 -0.1 136 0 1 1
11.8 14.6 -0.1 140 0 1 1
11.8 14.9 -0.1 139 0 1 1
11.8 15.3 -0.1 139 0 1 1
11.9 7.4 1.6 129 0 1 5
11.9 9.4 0.9 120 0 1 5
11.9 10.9 0.5 85 0 1 5
11.9 15.9 -0.1 84 0 1 1
12 6.8 1.7 119 0 1 5
12 8.3 1.5 128 0 1 5
12 8.9 1.2 122 0 1 5
12 10.3 0.7 91 0 1 5
12.1 6.3 1.9 140 0 1 5
12.1 7.7 1.6 123 0 1 5
12.1 9.8 0.9 85 0 1 5
12.2 7.2 1.8 123 0 1 5
12.2 8.6 1.4 117 0 1 5
12.2 9.2 1.1 89 0 1 5
12.2 10.6 0.6 125 0 1 5
12.2 14.2 0 139 0 1 1
12.2 14.6 -0.1 137 0 1 1
12.2 15 -0.1 138 0 1 1
12.2 15.4 -0.1 136 0 1 1
12.2 15.5 -0.1 139 0 1 1
12.2 15.6 -0.1 127 0 1 1
12.3 6.6 1.9 122 0 1 5
12.3 8 1.6 126 0 1 5
12.4 7.5 1.8 127 0 1 5
12.4 8.9 1.3 84 0 1 5
12.4 9.5 1 123 0 1 5
12.4 15.4 -0.1 133 0 1 1
12.4 15.5 -0.1 100 0 1 1
12.5 6.9 2 125 0 1 5
12.5 8.4 1.6 124 0 1 5
12.5 15.4 -0.1 122 0 1 1
12.6 7.8 1.8 130 0 1 5
12.6 14.6 -0.1 137 0 1 1
12.7 6.6 2.2 122 0 1 5
12.7 7.2 2 124 0 1 5
12.7 8.7 1.6 125 0 1 5
12.8 7.5 2 121 0 1 5
12.8 8.1 1.8 130 0 1 5
12.8 15.2 -0.1 129 0 1 1
12.9 7 2.2 144 0 1 5
13 7.8 2 121 0 1 5
13 8.4 1.8 124 0 1 5
13 14.6 0 120 0 1 1
13 14.8 0 129 0 1 1
13 15 -0.1 98 0 1 1
13.1 7.3 2.2 107 0 1 5
13.2 8.2 2 105 0 1 5
13.2 8.7 1.7 95 0 1 5
13.2 14.6 0 140 0 1 1
13.2 14.8 -0.1 117 0 1 1
13.3 7.6 2.2 101 0 1 5
13.4 7 2.4 111 0 1 5
13.4 8.5 1.9 125 0 1 5
13.5 7.9 2.2 106 0 1 5
13.6 7.3 2.3 131 0 1 5
13.7 8.2 2.1 94 0 1 5
13.8 7.7 2.3 97 0 1 5
