-18.9 6.5 -0.1 112 0 1 1
-18.7 6.5 -0.1 118 0 1 1
-18.7 6.9 -0.1 89 0 1 1
-18.6 6.5 -0.1 122 0 1 1
-18.6 6.9 -0.1 120 0 1 1
-18.6 7.1 -0.1 123 0 1 1
-18.6 7.4 -0.1 89 0 1 1
-18.6 7.5 -0.1 86 0 1 1
-18.5 7.6 -0.1 86 0 1 1
-18.5 7.7 -0.1 88 0 1 1
-18.3 8.1 -0.1 80 0 1 1
-18.2 6.5 -0.1 120 0 1 1
-18.2 6.9 -0.1 123 0 1 1
-18.1 7.7 -0.1 126 0 1 1
-18.1 8.4 -0.1 127 0 1 1
-18 8.1 -0.1 124 0 1 1
-17.9 8.4 -0.1 127 0 1 1
-17.9 8.7 -0.1 105 0 1 1
-17.8 6.5 -0.1 115 0 1 1
-17.8 6.9 -0.1 118 0 1 1
-17.8 8.7 -0.1 115 0 1 1
-17.8 9 -0.1 109 0 1 1
-17.7 7.3 -0.1 111 0 1 1
-17.7 7.7 -0.1 121 0 1 1
-17.7 8.1 -0.1 124 0 1 1
-17.7 8.5 -0.1 123 0 1 1
-17.7 9.1 0 115 0 1 1
-17.7 9.2 0 82 0 1 1
-17.5 9.6 0 85 0 1 1
-17.4 6.9 -0.1 122 0 1 1
-17.4 8.1 -0.1 121 0 1 1
-17.4 8.5 -0.1 124 0 1 1
-17.4 9.2 0 122 0 1 1
-17.3 6.5 -0.1 116 0 1 1
-17.3 7.3 -0.1 119 0 1 1
-17.3 7.7 -0.1 119 0 1 1
-17.3 9.6 0 118 0 1 1
-17.2 10 0 87 0 1 1
-17.1 10 0 119 0 1 1
-17.1 10.2 0 85 0 1 1
-17 7.3 -0.1 121 0 1 1
-17 8.1 -0.1 121 0 1 1
-17 8.4 -0.1 122 0 1 1
-17 8.8 -0.1 122 0 1 1
-17 9.2 0 121 0 1 1
-17 9.6 0 120 0 1 1
-17 10.4 0 83 0 1 1
-16.9 6.1 -0.1 115 0 1 1
-16.9 6.5 -0.1 117 0 1 1
-16.9 6.9 -0.1 119 0 1 1
-16.9 10.6 -0.1 89 0 1 1
-16.8 10.7 -0.1 102 0 1 1
-16.8 10.9 -0.1 96 0 1 1
-16.7 11.1 -0.1 124 0 1 1
-16.6 7.7 -0.1 113 0 1 1
-16.6 8.1 -0.1 119 0 1 1
-16.6 8.4 -0.1 121 0 1 1
-16.6 8.8 0 135 0 1 1
-16.6 9.2 0 104 0 1 1
-16.6 9.6 0 120 0 1 1
-16.6 10 0 118 0 1 1
-16.5 6.1 0 120 0 1 1
-16.5 6.5 0 119 0 1 1
-16.5 6.9 0 122 0 1 1
-16.5 7.3 0 119 0 1 1
-16.5 10.7 0 90 0 1 1
-16.5 11.3 0 125 0 1 1
-16.3 11.5 0 101 0 1 1
-16.2 7.7 0 116 0 1 1
-16.2 8.1 0 125 0 1 1
-16.2 8.4 0 110 0 1 1
-16.2 8.8 0 76 0 1 1
-16.2 9.2 0 116 0 1 1
-16.2 9.6 0 118 0 1 1
-16.2 9.9 0 109 0 1 1
-16.2 10.3 0 102 0 1 1
-16.2 10.7 0 123 0 1 1
-16.2 11.1 0 108 0 1 1
-16.2 11.5 0 118 0 1 1
-16.2 11.6 0 108 0 1 1
-16.2 11.7 0 120 0 1 1
-16.1 5.7 0 119 0 1 1
-16.1 6.1 0 120 0 1 1
-16.1 6.5 0 120 0 1 1
-16.1 6.9 0 126 0 1 1
-16.1 7.3 0 110 0 1 1
-15.9 12 0 90 0 1 1
-15.8 5.7 0 119 0 1 1
-15.8 6.1 0 125 0 1 1
-15.8 6.5 0 64 0 1 1
-15.8 6.9 0 118 0 1 1
-15.8 7.3 0 117 0 1 1
-15.8 7.6 -0.1 128 0 1 1
-15.8 8 0 127 0 1 1
-15.8 8.4 0 120 0 1 1
-15.8 8.8 0 117 0 1 1
-15.8 9.2 0 115 0 1 1
-15.8 9.6 0 114 0 1 1
-15.8 9.9 0.1 103 0 1 1
-15.8 10.3 0 115 0 1 1
-15.8 10.7 0 120 0 1 1
-15.8 11.1 0 127 0 1 1
-15.8 11.5 0 129 0 1 1
-15.7 12.3 0 117 0 1 1
-15.5 11.1 0 116 0 1 1
-15.5 11.5 0 131 0 1 1
-15.5 12.3 0 114 0 1 1
-15.4 5.7 0 117 0 1 1
-15.4 6.1 0 94 0 1 1
-15.4 6.5 0 106 0 1 1
-15.4 6.9 -0.1 123 0 1 1
-15.4 7.2 -0.1 124 0 1 1
-15.4 7.6 -0.1 126 0 1 1
-15.4 8 0 127 0 1 1
-15.4 8.4 0 127 0 1 1
-15.4 8.8 0 122 0 1 1
-15.4 9.1 0.1 119 0 1 1
-15.4 9.5 0.1 109 0 1 1
-15.4 9.9 0.1 83 0 1 1
-15.4 10.3 0 120 0 1 1
-15.4 10.6 0 125 0 1 1
-15.4 11.9 0 119 0 1 1
-15.4 12.3 0 132 0 1 1
-15.4 12.4 0 110 0 1 1
-15.4 12.6 0 102 0 1 1
-15.3 12.8 0 115 0 1 1
-15.1 5.7 0 120 0 1 1
-15.1 6.1 0 122 0 1 1
-15.1 6.5 0 121 0 1 1
-15.1 6.9 -0.1 122 0 1 1
-15.1 7.2 -0.1 120 0 1 1
-15.1 7.6 -0.1 77 0 1 1
-15.1 8 0 132 0 1 1
-15.1 9.9 0.1 108 0 1 1
-15.1 10.3 0 118 0 1 1
-15.1 10.6 0 124 0 1 1
-15.1 11.1 0 129 0 1 1
-15.1 11.5 0 130 0 1 1
-15.1 11.9 0 115 0 1 1
-15.1 12.3 0 121 0 1 1
-15.1 13 0 114 0 1 1
-15 8.4 0 128 0 1 1
-15 8.8 0 121 0 1 1
-15 9.1 0.1 122 0 1 1
-15 9.5 0.1 117 0 1 1
-14.9 13 0 112 0 1 1
-14.9 13.2 0 121 0 1 1
-14.8 5.3 0 129 0 1 1
-14.8 11.5 0 124 0 1 1
-14.7 5.7 0 126 0 1 1
-14.7 6.1 0 123 0 1 1
-14.7 6.5 0 124 0 1 1
-14.7 6.9 -0.1 118 0 1 1
-14.7 7.2 -0.1 118 0 1 1
-14.7 7.6 -0.1 107 0 1 1
-14.7 8 -0.1 119 0 1 1
-14.7 8.4 0 117 0 1 1
-14.7 8.8 0 122 0 1 1
-14.7 9.1 0 123 0 1 1
-14.7 9.5 0 103 0 1 1
-14.7 9.9 0 121 0 1 1
-14.7 10.3 0 126 0 1 1
-14.7 10.7 0 109 0 1 1
-14.7 11.1 0 119 0 1 1
-14.7 11.8 0 122 0 1 1
-14.7 12.2 0 109 0 1 1
-14.7 12.6 0 121 0 1 1
-14.7 13 -0.1 130 0 1 1
-14.7 13.2 0 115 0 1 1
-14.7 13.5 0 79 0 1 1
-14.6 13.6 0 94 0 1 1
-14.5 13.7 0 92 0 1 1
-14.4 5.4 0 119 0 1 1
-14.4 11.5 0 125 0 1 1
-14.4 13.9 0 119 0 1 1
-14.3 5.7 0 124 0 1 1
-14.3 6.1 0 130 0 1 1
-14.3 6.5 0 123 0 1 1
-14.3 6.9 -0.1 94 0 1 1
-14.3 7.2 -0.1 112 0 1 1
-14.3 7.6 -0.1 74 0 1 1
-14.3 8 -0.1 101 0 1 1
-14.3 8.4 -0.1 133 0 1 1
-14.3 8.8 0 116 0 1 1
-14.3 9.2 0 91 0 1 1
-14.3 9.5 0 86 0 1 1
-14.3 9.9 0 122 0 1 1
-14.3 10.3 0 124 0 1 1
-14.3 10.7 0 118 0 1 1
-14.3 11.1 0 131 0 1 1
-14.3 11.9 -0.1 121 0 1 1
-14.3 12.2 -0.1 129 0 1 1
-14.3 12.6 -0.1 129 0 1 1
-14.3 13 -0.1 118 0 1 1
-14.2 13.7 0 111 0 1 1
-14.2 14.1 0 120 0 1 1
-14.1 14 0 136 0 1 1
-14.1 14.2 0 126 0 1 1
-14 11.1 0 121 0 1 1
-14 11.5 -0.1 106 0 1 1
-13.9 5.4 -0.1 134 0 1 1
-13.9 5.7 -0.1 125 0 1 1
-13.9 6.1 -0.1 128 0 1 1
-13.9 6.5 -0.1 69 0 1 1
-13.9 6.9 -0.1 94 0 1 1
-13.9 7.2 -0.1 121 0 1 1
-13.9 8 -0.1 116 0 1 1
-13.9 8.4 -0.1 100 0 1 1
-13.9 8.8 -0.1 119 0 1 1
-13.9 9.2 -0.1 133 0 1 1
-13.9 9.6 -0.1 124 0 1 1
-13.9 9.9 -0.1 119 0 1 1
-13.9 10.3 -0.1 122 0 1 1
-13.9 10.7 0 117 0 1 1
-13.9 11.9 -0.1 125 0 1 1
-13.9 12.3 -0.1 125 0 1 1
-13.9 12.7 -0.1 122 0 1 1
-13.9 13 -0.1 119 0 1 1
-13.9 13.4 0 125 0 1 1
-13.9 13.8 0 144 0 1 1
-13.9 14 0 126 0 1 1
-13.9 14.3 0 90 0 1 1
-13.8 7.6 -0.1 85 0 1 1
-13.8 14.4 0 99 0 1 1
-13.6 5.4 -0.1 126 0 1 1
-13.6 11.1 -0.1 105 0 1 1
-13.6 11.5 -0.1 112 0 1 1
-13.6 11.9 -0.1 121 0 1 1
-13.6 14.5 -0.1 103 0 1 1
-13.5 5.7 -0.1 112 0 1 1
-13.5 6.1 -0.1 96 0 1 1
-13.5 6.5 -0.1 118 0 1 1
-13.5 6.9 -0.1 122 0 1 1
-13.5 7.2 -0.1 129 0 1 1
-13.5 7.6 -0.1 108 0 1 1
-13.5 8 -0.1 110 0 1 1
-13.5 8.4 -0.1 120 0 1 1
-13.5 8.8 -0.1 121 0 1 1
-13.5 9.2 -0.1 129 0 1 1
-13.5 9.6 -0.1 118 0 1 1
-13.5 9.9 -0.1 122 0 1 1
-13.5 10.3 -0.1 115 0 1 1
-13.5 10.7 -0.1 114 0 1 1
-13.5 12.3 -0.1 114 0 1 1
-13.5 12.7 -0.1 126 0 1 1
-13.5 13.1 -0.1 121 0 1 1
-13.5 13.4 -0.1 130 0 1 1
-13.5 13.8 0 132 0 1 1
-13.4 14.6 -0.1 116 0 1 1
-13.4 14.8 -0.1 79 0 1 1
-13.2 5.4 -0.1 128 0 1 1
-13.2 10.7 -0.1 102 0 1 1
-13.2 11.1 -0.1 72 0 1 1
-13.2 11.5 -0.1 116 0 1 1
-13.2 11.8 -0.1 114 0 1 1
-13.2 12.2 -0.1 108 0 1 1
-13.2 12.6 -0.1 108 0 1 1
-13.2 13.4 -0.1 105 0 1 1
-13.2 13.8 0 103 0 1 1
-13.2 14.2 -0.1 116 0 1 1
-13.2 14.6 -0.1 112 0 1 1
-13.1 5.8 -0.1 118 0 1 1
-13.1 6.1 -0.1 120 0 1 1
-13.1 6.5 -0.1 109 0 1 1
-13.1 6.9 -0.1 121 0 1 1
-13.1 7.2 -0.1 128 0 1 1
-13.1 7.6 -0.1 120 0 1 1
-13.1 8 -0.1 123 0 1 1
-13.1 8.4 -0.1 116 0 1 1
-13.1 8.8 -0.1 124 0 1 1
-13.1 9.2 -0.1 115 0 1 1
-13.1 9.5 -0.1 113 0 1 1
-13.1 9.9 -0.1 127 0 1 1
-13.1 10.3 -0.1 120 0 1 1
-13.1 13.1 -0.1 122 0 1 1
-13.1 14.8 -0.1 116 0 1 1
-12.8 10.7 -0.1 117 0 1 1
-12.8 11.1 -0.1 123 0 1 1
-12.8 11.5 -0.1 121 0 1 1
-12.8 11.9 -0.1 109 0 1 1
-12.8 12.3 -0.1 108 0 1 1
-12.7 5 -0.1 125 0 1 1
-12.7 5.4 -0.1 121 0 1 1
-12.7 5.8 -0.1 125 0 1 1
-12.7 6.1 -0.1 118 0 1 1
-12.7 6.5 -0.1 123 0 1 1
-12.7 6.9 0 125 0 1 1
-12.7 7.2 0 130 0 1 1
-12.7 7.6 -0.1 122 0 1 1
-12.7 8 -0.1 120 0 1 1
-12.7 8.4 -0.1 120 0 1 1
-12.7 8.8 -0.1 120 0 1 1
-12.7 9.1 -0.1 102 0 1 1
-12.7 9.5 -0.1 123 0 1 1
-12.7 9.9 -0.1 123 0 1 1
-12.7 10.3 -0.1 119 0 1 1
-12.7 12.6 -0.1 121 0 1 1
-12.7 13 -0.1 116 0 1 1
-12.7 13.8 -0.1 119 0 1 1
-12.7 14.2 -0.1 118 0 1 1
-12.6 2.7 1.2 89 0 1 3
-12.5 2.5 1.2 97 0 1 3
-12.4 2.2 1.2 77 0 1 3
-12.4 2.7 1.2 117 0 1 3
-12.4 2.8 1.2 121 0 1 3
-12.4 11.5 -0.1 126 0 1 1
-12.3 2 1 78 0 1 3
-12.3 2.1 1.1 90 0 1 3
-12.3 2.3 1.2 129 0 1 3
-12.3 2.4 1.2 116 0 1 3
-12.3 2.6 1.2 126 0 1 3
-12.3 5 -0.1 147 0 1 1
-12.3 5.4 -0.1 107 0 1 1
-12.3 5.7 -0.1 129 0 1 1
-12.3 6.1 0 117 0 1 1
-12.3 6.5 0 124 0 1 1
-12.3 6.8 0 126 0 1 1
-12.3 7.2 0 135 0 1 1
-12.3 7.6 -0.1 128 0 1 1
-12.3 8 -0.1 115 0 1 1
-12.3 8.4 0 119 0 1 1
-12.3 8.8 0 96 0 1 1
-12.3 9.1 -0.1 123 0 1 1
-12.3 9.5 -0.1 120 0 1 1
-12.3 9.9 -0.1 130 0 1 1
-12.3 10.3 -0.1 123 0 1 1
-12.3 10.7 -0.1 125 0 1 1
-12.3 11.1 -0.1 132 0 1 1
-12.3 11.9 -0.1 113 0 1 1
-12.3 12.3 0 127 0 1 1
-12.3 12.6 0 106 0 1 1
-12.3 13 0 127 0 1 1
-12.3 13.4 -0.1 117 0 1 1
-12.2 2.1 1 118 0 1 3
-12.2 2.2 1.1 111 0 1 3
-12.2 2.5 1.2 130 0 1 3
-12.2 2.8 1.2 132 0 1 3
-12.2 2.9 1.2 102 0 1 3
-12.1 2.3 1.1 131 0 1 3
-12.1 2.4 1.1 126 0 1 3
-12.1 2.5 1.2 110 0 1 3
-12.1 2.7 1.2 141 0 1 3
-12 1.9 0.9 118 0 1 3
-12 2.2 1.1 115 0 1 3
-12 2.5 1.1 113 0 1 3
-12 3.1 1.1 95 0 1 3
-12 6.1 0 119 0 1 1
-12 6.5 0 128 0 1 1
-12 9.9 -0.1 120 0 1 1
-12 10.3 -0.1 132 0 1 1
-12 10.7 -0.1 122 0 1 1
-12 11.1 -0.1 125 0 1 1
-12 11.5 -0.1 126 0 1 1
-11.9 2.3 1.1 134 0 1 3
-11.9 2.9 1.1 142 0 1 3
-11.9 5 -0.1 122 0 1 1
-11.9 5.3 -0.1 78 0 1 1
-11.9 5.7 -0.1 119 0 1 1
-11.9 6.8 0 133 0 1 1
-11.9 7.2 0 134 0 1 1
-11.9 7.6 -0.1 126 0 1 1
-11.9 8 -0.1 125 0 1 1
-11.9 8.4 -0.1 97 0 1 1
-11.9 8.8 -0.1 126 0 1 1
-11.9 9.2 -0.1 127 0 1 1
-11.9 9.5 -0.1 124 0 1 1
-11.9 11.9 -0.1 118 0 1 1
-11.9 12.3 -0.1 120 0 1 1
-11.9 12.6 -0.1 131 0 1 1
-11.9 13 -0.1 121 0 1 1
-11.8 2.1 1.1 111 0 1 3
-11.7 2 0.9 109 0 1 3
-11.7 2.2 1 132 0 1 3
-11.7 3.4 1 115 0 1 3
-11.6 1.9 0.9 92 0 1 3
-11.6 2.1 1 105 0 1 3
-11.6 2.5 1 139 0 1 3
-11.6 5.7 -0.1 124 0 1 1
-11.6 6.1 0 125 0 1 1
-11.6 6.5 0 129 0 1 1
-11.6 6.8 0 128 0 1 1
-11.6 7.2 0 134 0 1 1
-11.6 7.6 -0.1 130 0 1 1
-11.6 8 -0.1 127 0 1 1
-11.6 8.4 -0.1 125 0 1 1
-11.6 8.8 -0.1 127 0 1 1
-11.6 9.6 -0.1 126 0 1 1
-11.6 9.9 -0.1 125 0 1 1
-11.6 10.3 -0.1 119 0 1 1
-11.6 10.7 -0.1 127 0 1 1
-11.6 11.1 -0.1 133 0 1 1
-11.6 11.5 -0.1 134 0 1 1
-11.6 11.9 -0.1 130 0 1 1
-11.6 12.2 -0.1 135 0 1 1
-11.5 3.6 0.8 111 0 1 3
-11.5 4.9 -0.1 78 0 1 1
-11.5 5.3 -0.1 130 0 1 1
-11.5 9.2 -0.1 139 0 1 1
-11.4 2 1 129 0 1 3
-11.4 2.9 0.9 137 0 1 3
-11.3 1.8 0.9 115 0 1 3
-11.3 2.2 0.9 138 0 1 3
-11.3 3.4 0.8 144 0 1 3
-11.3 3.9 0.6 120 0 1 3
-11.2 3.7 0.7 131 0 1 3
-11.2 4.6 -0.1 119 0 1 1
-11.2 4.9 -0.1 123 0 1 1
-11.2 5.3 -0.1 117 0 1 1
-11.2 5.7 -0.1 128 0 1 1
-11.2 6.1 0 126 0 1 1
-11.2 6.5 -0.1 129 0 1 1
-11.2 6.9 -0.1 112 0 1 1
-11.2 7.2 -0.1 125 0 1 1
-11.2 7.6 -0.1 132 0 1 1
-11.2 8 -0.1 124 0 1 1
-11.2 8.4 0 126 0 1 1
-11.2 8.8 0 140 0 1 1
-11.2 9.2 0 115 0 1 1
-11.2 9.6 -0.1 128 0 1 1
-11.2 9.9 -0.1 118 0 1 1
-11.2 10.3 -0.1 120 0 1 1
-11.2 10.7 -0.1 130 0 1 1
-11.2 11.1 -0.1 128 0 1 1
-11.2 11.5 -0.1 130 0 1 1
-11.2 11.9 -0.1 96 0 1 1
-11.1 2 0.8 135 0 1 3
-11.1 2.4 0.8 158 0 1 3
-11 2.9 0.7 134 0 1 3
-11 3.9 0.6 126 0 1 3
-10.9 3.4 0.6 137 0 1 3
-10.9 5.4 -0.1 125 0 1 1
-10.9 5.7 -0.1 122 0 1 1
-10.9 6.1 -0.1 121 0 1 1
-10.9 6.5 -0.1 124 0 1 1
-10.9 6.9 -0.1 119 0 1 1
-10.9 7.2 -0.1 99 0 1 1
-10.9 7.6 -0.1 100 0 1 1
-10.9 8.1 0 126 0 1 1
-10.9 8.5 0 121 0 1 1
-10.8 1.7 0.7 117 0 1 3
-10.8 3.7 0.5 145 0 1 3
-10.8 4.5 -0.1 123 0 1 1
-10.8 5 -0.1 127 0 1 1
-10.8 8.9 0 96 0 1 1
-10.8 9.2 0 117 0 1 1
-10.8 9.6 -0.1 129 0 1 1
-10.8 10 -0.1 126 0 1 1
-10.8 10.3 -0.1 126 0 1 1
-10.8 10.7 -0.1 125 0 1 1
-10.7 2.1 0.6 135 0 1 3
-10.7 2.5 0.6 132 0 1 3
-10.7 4 0.5 130 0 1 3
-10.7 4.1 0.2 130 0 1 3
-10.7 4.1 0.3 134 0 1 3
-10.7 4.1 0.4 132 0 1 3
-10.7 4.2 0.1 132 0 1 3
-10.7 4.3 0 117 0 1 3
-10.6 2.9 0.5 135 0 1 3
-10.6 3.3 0.5 145 0 1 3
-10.6 3.6 0.4 105 0 1 3
-10.6 4.1 0.2 140 0 1 3
-10.6 4.2 0.1 130 0 1 3
-10.5 1.7 0.1 96 0 1 3
-10.5 1.7 0.3 102 0 1 3
-10.5 1.8 0.5 122 0 1 3
-10.5 3.9 0.3 127 0 1 3
-10.5 4 0.2 142 0 1 3
-10.5 4.1 0 121 0 1 3
-10.5 4.5 -0.1 126 0 1 1
-10.5 4.9 -0.1 116 0 1 1
-10.5 5.4 -0.1 135 0 1 1
-10.5 5.7 -0.1 128 0 1 1
-10.5 6.1 -0.1 124 0 1 1
-10.5 6.5 -0.1 123 0 1 1
-10.5 6.9 -0.1 124 0 1 1
-10.5 7.3 -0.1 89 0 1 1
-10.5 7.6 -0.1 107 0 1 1
-10.5 8.1 0 126 0 1 1
-10.5 8.5 0 113 0 1 1
-10.4 2.2 0.5 136 0 1 3
-10.4 3.9 0.2 123 0 1 3
-10.4 4.1 0 122 0 1 3
-10.4 8.8 0 124 0 1 1
-10.4 9.2 0 105 0 1 1
-10.4 9.6 -0.1 126 0 1 1
-10.4 9.9 -0.1 121 0 1 1
-10.4 10.3 -0.1 116 0 1 1
-10.4 10.7 -0.1 124 0 1 1
-10.3 1.9 0 99 0 1 3
-10.3 3.6 0.3 133 0 1 3
-10.3 3.9 0.1 97 0 1 3
-10.3 4 -0.1 129 0 1 3
-10.2 2 0.3 108 0 1 3
-10.2 2.1 0.4 130 0 1 3
-10.2 2.6 0.4 136 0 1 3
-10.2 2.7 0.4 138 0 1 3
-10.2 2.9 0.4 128 0 1 3
-10.2 3.2 0.3 144 0 1 3
-10.2 3.6 0 126 0 1 3
-10.2 3.6 0.1 127 0 1 3
-10.1 2.5 0.3 140 0 1 3
-10.1 2.6 0.3 123 0 1 3
-10.1 2.9 0.3 123 0 1 3
-10.1 3.1 0.3 131 0 1 3
-10.1 3.3 0.1 128 0 1 3
-10.1 3.3 0.2 128 0 1 3
-10.1 3.4 0 113 0 1 1
-10.1 3.8 0 117 0 1 1
-10.1 4.2 0 126 0 1 1
-10.1 4.5 -0.1 129 0 1 1
-10.1 4.9 -0.1 128 0 1 1
-10.1 5.3 -0.1 91 0 1 1
-10.1 5.7 -0.1 106 0 1 1
-10.1 6.1 -0.1 136 0 1 1
-10.1 6.5 -0.1 129 0 1 1
-10.1 6.9 -0.1 130 0 1 1
-10.1 7.3 -0.1 92 0 1 1
-10.1 7.7 -0.1 110 0 1 1
-10.1 8.1 0 127 0 1 1
-10.1 8.5 0 109 0 1 1
-10.1 8.8 0 126 0 1 1
-10.1 9.2 0 132 0 1 1
-10.1 9.5 0 130 0 1 1
-10 1.8 -0.1 120 0 1 1
-10 2.1 0 91 0 1 3
-10 2.2 0.1 124 0 1 3
-10 2.3 0.2 137 0 1 3
-10 2.5 0.2 140 0 1 3
-10 2.7 0.2 98 0 1 3
-10 2.8 0.2 120 0 1 3
-10 2.8 0.3 129 0 1 3
-10 3 0.2 133 0 1 3
-10 3 0.3 139 0 1 3
-10 3.2 0.1 131 0 1 3
-10 9.9 -0.1 133 0 1 1
-10 10.3 -0.1 117 0 1 1
-9.9 2.5 0 111 0 1 3
-9.9 2.6 0.1 147 0 1 3
-9.9 2.8 0 141 0 1 3
-9.9 2.9 0 138 0 1 3
-9.9 3.1 0 91 0 1 3
-9.7 2.2 0 126 0 1 1
-9.7 2.6 0 126 0 1 1
-9.7 3 0 121 0 1 1
-9.7 3.4 0 75 0 1 1
-9.7 3.8 0 125 0 1 1
-9.7 4.2 0 123 0 1 1
-9.7 4.5 0 129 0 1 1
-9.7 4.9 -0.1 128 0 1 1
-9.7 5.3 -0.1 127 0 1 1
-9.7 5.7 -0.1 130 0 1 1
-9.7 6.1 -0.1 130 0 1 1
-9.7 6.5 -0.1 121 0 1 1
-9.7 6.9 -0.1 130 0 1 1
-9.7 7.2 -0.1 138 0 1 1
-9.7 7.6 -0.1 126 0 1 1
-9.7 8 -0.1 133 0 1 1
-9.7 8.4 -0.1 136 0 1 1
-9.7 8.8 -0.1 130 0 1 1
-9.7 9.1 -0.1 133 0 1 1
-9.7 9.5 -0.1 137 0 1 1
-9.6 1.4 0 123 0 1 1
-9.6 1.8 0 125 0 1 1
-9.3 1.8 0 126 0 1 1
-9.3 2.2 0 127 0 1 1
-9.3 2.6 0 117 0 1 1
-9.3 3.1 0 110 0 1 1
-9.3 3.4 0 131 0 1 1
-9.3 3.8 0 127 0 1 1
-9.3 4.2 0 132 0 1 1
-9.3 4.5 0 110 0 1 1
-9.3 4.9 -0.1 133 0 1 1
-9.3 5.3 -0.1 124 0 1 1
-9.3 6.1 -0.1 135 0 1 1
-9.3 6.5 -0.1 114 0 1 1
-9.3 6.8 -0.1 124 0 1 1
-9.3 7.2 -0.1 136 0 1 1
-9.3 7.6 -0.1 128 0 1 1
-9.3 8 -0.1 133 0 1 1
-9.3 8.4 -0.1 121 0 1 1
-9.3 8.8 -0.1 133 0 1 1
-9.2 1.4 0 127 0 1 1
-8.9 1.8 0 122 0 1 1
-8.9 2.2 0 135 0 1 1
-8.9 2.6 0 136 0 1 1
-8.9 3 -0.1 124 0 1 1
-8.9 3.4 -0.1 112 0 1 1
-8.9 3.8 -0.1 116 0 1 1
-8.9 4.2 -0.1 111 0 1 1
-8.9 4.5 -0.1 135 0 1 1
-8.9 4.9 -0.1 134 0 1 1
-8.9 5.1 0 118 0 1 2
-8.9 6.5 -0.1 126 0 1 1
-8.9 6.9 -0.1 132 0 1 1
-8.9 7.2 -0.1 133 0 1 1
-8.9 8 -0.1 128 0 1 1
-8.9 8.3 -0.1 81 0 1 1
-8.8 1.4 0 125 0 1 1
-8.8 5.1 0 130 0 1 2
-8.8 5.4 0.1 105 0 1 2
-8.8 6.1 -0.1 130 0 1 1
-8.8 7.6 -0.1 133 0 1 1
-8.8 8.4 0 115 0 1 5
-8.7 5.1 0 102 0 1 2
-8.7 8.7 0.1 126 0 1 5
-8.6 5.1 0 68 0 1 2
-8.6 5.4 0.1 123 0 1 2
-8.5 1.8 0 122 0 1 1
-8.5 2.2 0 127 0 1 1
-8.5 2.6 -0.1 136 0 1 1
-8.5 3 -0.1 76 0 1 1
-8.5 3.4 -0.1 110 0 1 1
-8.5 3.8 -0.1 142 0 1 1
-8.5 4.1 -0.1 118 0 1 1
-8.5 4.5 -0.1 125 0 1 1
-8.5 5 0 92 0 1 2
-8.5 5.1 0 80 0 1 2
-8.5 5.3 0.1 123 0 1 2
-8.5 5.4 0.1 127 0 1 2
-8.5 8 -0.1 98 0 1 5
-8.5 9.1 0.4 98 0 1 5
-8.4 1.4 -0.1 125 0 1 1
-8.4 4.9 -0.1 138 0 1 1
-8.4 5 -0.1 139 0 1 2
-8.4 5.1 0.1 125 0 1 2
-8.4 5.2 0.1 122 0 1 2
-8.4 5.3 0.1 131 0 1 2
-8.4 5.4 0 133 0 1 2
-8.4 5.5 0 133 0 1 2
-8.4 5.7 -0.1 133 0 1 1
-8.4 6.1 -0.2 132 0 1 1
-8.4 6.5 -0.2 120 0 1 1
-8.4 6.9 -0.2 126 0 1 1
-8.4 7.2 -0.2 131 0 1 1
-8.4 7.6 -0.2 127 0 1 1
-8.4 8.3 0.1 98 0 1 5
-8.3 5.1 0 124 0 1 2
-8.3 5.2 0 134 0 1 2
-8.3 5.3 0 133 0 1 2
-8.3 8.7 0.3 80 0 1 5
-8.2 7.9 0 111 0 1 5
-8.2 9 0.6 100 0 1 5
-8.1 1.5 0 119 0 1 1
-8.1 1.8 0 125 0 1 1
-8.1 2.2 0 132 0 1 1
-8.1 3 -0.1 124 0 1 1
-8.1 3.7 -0.1 130 0 1 1
-8.1 4.5 -0.1 92 0 1 1
-8.1 6.5 -0.1 123 0 1 1
-8.1 6.9 -0.1 102 0 1 1
-8.1 7.3 -0.1 94 0 1 1
-8.1 7.6 -0.1 122 0 1 1
-8.1 9.4 0.8 87 0 1 5
-8 4.9 0 116 0 1 1
-8 5.3 0 115 0 1 1
-8 5.7 -0.1 113 0 1 1
-8 6.1 -0.1 122 0 1 1
-8 8.3 0.2 80 0 1 5
-7.9 8.6 0.4 106 0 1 5
-7.9 9.7 1 92 0 1 5
-7.8 7.9 0 109 0 1 5
-7.8 9 0.7 103 0 1 5
-7.8 10.1 1.2 75 0 1 5
-7.7 1.1 0 117 0 1 1
-7.7 1.5 0 125 0 1 1
-7.7 1.9 0 135 0 1 1
-7.7 2.2 0 127 0 1 1
-7.7 2.4 0 122 0 1 1
-7.7 2.6 0 121 0 1 1
-7.7 2.8 -0.1 118 0 1 1
-7.7 2.9 -0.1 119 0 1 1
-7.7 3.1 -0.1 113 0 1 1
-7.7 3.3 -0.1 122 0 1 1
-7.7 3.5 -0.1 115 0 1 1
-7.7 3.7 -0.1 111 0 1 4
-7.7 3.9 -0.1 109 0 1 1
-7.7 4.1 -0.1 107 0 1 4
-7.7 4.3 -0.1 105 0 1 1
-7.7 6.1 -0.1 124 0 1 1
-7.7 6.5 -0.1 126 0 1 1
-7.7 6.9 -0.1 89 0 1 1
-7.7 7.3 -0.1 95 0 1 1
-7.7 8.2 0.2 107 0 1 5
-7.7 9.3 0.9 111 0 1 5
-7.6 4.5 0 89 0 1 4
-7.6 4.9 0 123 0 1 1
-7.6 5.3 0 127 0 1 1
-7.6 5.7 -0.1 151 0 1 1
-7.6 7.5 -0.1 115 0 1 5
-7.6 8.6 0.5 109 0 1 5
-7.6 9.7 1.1 104 0 1 5
-7.5 2.2 -0.1 132 0 1 1
-7.5 4.5 -0.1 89 0 1 1
-7.5 10 1.3 89 0 1 5
-7.4 1.5 -0.1 125 0 1 1
-7.4 2.2 -0.2 118 0 1 4
-7.4 2.5 -0.2 104 0 1 4
-7.4 2.9 -0.2 104 0 1 4
-7.4 6.9 -0.1 65 0 1 1
-7.4 7.3 -0.1 89 0 1 1
-7.4 7.9 0.1 115 0 1 5
-7.4 8.9 0.7 116 0 1 5
-7.3 1.1 -0.1 131 0 1 1
-7.3 3.3 -0.2 114 0 1 4
-7.3 3.7 -0.2 114 0 1 4
-7.3 4.1 -0.2 88 0 1 4
-7.3 4.5 -0.2 88 0 1 1
-7.3 5.3 -0.1 130 0 1 1
-7.3 5.7 -0.1 123 0 1 1
-7.3 6.1 -0.1 129 0 1 1
-7.3 6.5 -0.1 92 0 1 1
-7.3 8.2 0.3 108 0 1 5
-7.3 9.3 0.9 112 0 1 5
-7.3 10.4 1.6 79 0 1 5
-7.2 2 -0.2 133 0 1 1
-7.2 7.5 -0.1 115 0 1 5
-7.2 8.6 0.5 107 0 1 5
-7.2 9.6 1.2 109 0 1 5
-7.1 4.7 -0.2 116 0 1 1
-7.1 7.8 0.1 110 0 1 5
-7.1 8.9 0.7 115 0 1 5
-7.1 10 1.4 81 0 1 5
-7 1.1 -0.1 116 0 1 1
-7 1.5 -0.1 120 0 1 4
-7 1.7 -0.2 96 0 1 1
-7 1.8 -0.2 111 0 1 1
-7 2.2 -0.3 118 0 1 4
-7 2.5 -0.3 115 0 1 4
-7 2.9 -0.3 93 0 1 4
-7 3.3 -0.3 118 0 1 4
-7 3.6 -0.3 121 0 1 4
-7 4.1 -0.3 105 0 1 4
-7 5.1 -0.1 118 0 1 1
-7 5.3 -0.1 128 0 1 1
-7 5.7 -0.1 128 0 1 1
-7 6.1 0 102 0 1 1
-7 6.5 0 130 0 1 1
-7 6.9 0 126 0 1 1
-7 7.3 -0.1 112 0 1 1
-7 9.3 1 109 0 1 5
-7 10.3 1.7 117 0 1 5
-6.9 4.5 -0.3 107 0 1 4
-6.9 4.9 -0.2 106 0 1 1
-6.9 8.2 0.3 109 0 1 5
-6.9 10.7 1.9 93 0 1 5
-6.8 1.5 -0.2 112 0 1 1
-6.8 5.3 -0.1 130 0 1 1
-6.8 7.4 -0.1 113 0 1 5
-6.8 8.5 0.6 108 0 1 5
-6.8 9.6 1.2 114 0 1 5
-6.7 7.8 0.2 79 0 1 5
-6.7 8.9 0.8 107 0 1 5
-6.7 9.9 1.5 104 0 1 5
-6.6 1.5 -0.2 120 0 1 4
-6.6 1.8 -0.3 102 0 1 4
-6.6 2.1 -0.4 113 0 1 4
-6.6 2.5 -0.4 111 0 1 4
-6.6 2.9 -0.4 113 0 1 4
-6.6 3.2 -0.5 105 0 1 4
-6.6 3.6 -0.5 117 0 1 4
-6.6 4 -0.4 119 0 1 4
-6.6 4.4 -0.4 125 0 1 4
-6.6 4.9 -0.3 89 0 1 4
-6.6 6.1 -0.1 132 0 1 1
-6.6 6.5 -0.1 137 0 1 1
-6.6 6.9 -0.1 131 0 1 1
-6.6 7.3 -0.1 115 0 1 1
-6.6 8.1 0.4 111 0 1 5
-6.6 9.2 1 116 0 1 5
-6.6 10.3 1.7 122 0 1 5
-6.5 5.3 -0.2 116 0 1 4
-6.5 7.4 0 88 0 1 5
-6.5 8.5 0.6 110 0 1 5
-6.5 9.6 1.2 103 0 1 5
-6.5 10.6 2 79 0 1 5
-6.4 1.4 -0.2 116 0 1 1
-6.4 9.9 1.5 111 0 1 5
-6.4 11 2.2 82 0 1 5
-6.3 2.8 -0.6 99 0 1 4
-6.3 5.3 -0.2 118 0 1 1
-6.3 7.7 0.2 117 0 1 5
-6.3 8.8 0.8 101 0 1 5
-6.2 1.1 -0.1 81 0 1 1
-6.2 1.4 -0.2 122 0 1 4
-6.2 1.7 -0.4 116 0 1 4
-6.2 2 -0.5 109 0 1 4
-6.2 2.4 -0.6 119 0 1 4
-6.2 3.2 -0.6 114 0 1 4
-6.2 3.6 -0.6 122 0 1 4
-6.2 4 -0.6 105 0 1 4
-6.2 4.3 -0.6 113 0 1 4
-6.2 4.8 -0.4 115 0 1 4
-6.2 5.7 -0.2 118 0 1 1
-6.2 6.1 -0.1 136 0 1 1
-6.2 6.5 -0.1 141 0 1 1
-6.2 6.9 -0.1 121 0 1 1
-6.2 8.1 0.4 113 0 1 5
-6.2 9.2 1.1 105 0 1 5
-6.2 10.3 1.8 109 0 1 5
-6.1 5.3 -0.3 103 0 1 4
-6.1 7.3 0 95 0 1 5
-6.1 8.4 0.7 114 0 1 5
-6.1 9.5 1.3 112 0 1 5
-6.1 10.6 2.1 91 0 1 5
-6 1.4 -0.2 119 0 1 1
-6 7.7 0.2 113 0 1 5
-6 8.8 0.9 105 0 1 5
-6 9.9 1.6 114 0 1 5
-6 11 2.3 117 0 1 5
-5.9 2.8 -0.6 108 0 1 4
-5.9 5.3 -0.3 108 0 1 1
-5.9 9.1 1.1 104 0 1 5
-5.9 10.2 1.8 81 0 1 5
-5.9 11.3 2.4 80 0 1 5
-5.8 1.4 -0.2 123 0 1 1
-5.8 1.7 -0.4 97 0 1 4
-5.8 2 -0.6 111 0 1 4
-5.8 2.4 -0.6 104 0 1 4
-5.8 3.2 -0.6 111 0 1 4
-5.8 3.6 -0.6 106 0 1 4
-5.8 4 -0.6 91 0 1 4
-5.8 4.3 -0.6 109 0 1 4
-5.8 4.8 -0.4 95 0 1 4
-5.8 5.3 -0.3 114 0 1 4
-5.8 6.1 -0.1 136 0 1 1
-5.8 6.5 -0.1 121 0 1 1
-5.8 6.8 -0.1 125 0 1 1
-5.8 8 0.4 111 0 1 5
-5.8 10.6 2.1 109 0 1 5
-5.7 7.3 0 75 0 1 5
-5.7 8.4 0.7 83 0 1 5
-5.7 9.5 1.4 97 0 1 5
-5.6 1.4 -0.2 127 0 1 1
-5.6 5.3 -0.3 108 0 1 1
-5.6 7.6 0.2 118 0 1 5
-5.6 8.7 0.9 121 0 1 5
-5.6 9.8 1.6 58 0 1 5
-5.6 10.9 2.4 84 0 1 5
-5.5 3.2 -0.6 86 0 1 4
-5.5 3.6 -0.6 112 0 1 4
-5.5 8 0.5 110 0 1 5
-5.5 9.1 1.2 112 0 1 5
-5.5 10.2 1.9 95 0 1 5
-5.4 0.7 0 130 0 1 1
-5.4 1.1 -0.1 104 0 1 1
-5.4 1.4 -0.2 120 0 1 1
-5.4 1.7 -0.4 115 0 1 4
-5.4 2 -0.6 85 0 1 4
-5.4 2.4 -0.6 101 0 1 4
-5.4 2.8 -0.6 102 0 1 4
-5.4 4 -0.6 111 0 1 4
-5.4 4.4 -0.6 105 0 1 4
-5.4 4.8 -0.4 102 0 1 4
-5.4 5.3 -0.3 107 0 1 4
-5.4 5.7 -0.2 124 0 1 1
-5.4 6.1 -0.1 110 0 1 1
-5.4 6.4 -0.1 120 0 1 1
-5.4 6.8 0 129 0 1 1
-5.4 7.3 0 115 0 1 5
-5.4 8.3 0.7 79 0 1 5
-5.4 9.4 1.4 104 0 1 5
-5.4 10.5 2.2 92 0 1 5
-5.3 9.8 1.7 97 0 1 5
-5.3 10.9 2.4 119 0 1 5
-5.2 1.4 -0.2 123 0 1 1
-5.2 5.3 -0.3 128 0 1 1
-5.2 7.6 0.2 136 0 1 5
-5.2 8.7 1 61 0 1 5
-5.2 11.2 2.5 88 0 1 5
-5.1 3.2 -0.6 110 0 1 4
-5.1 3.6 -0.6 89 0 1 4
-5.1 8 0.5 98 0 1 5
-5.1 9 1.2 82 0 1 5
-5.1 10.1 2 109 0 1 5
-5 0.7 -0.1 127 0 1 1
-5 1.4 -0.3 125 0 1 1
-5 1.7 -0.4 64 0 1 4
-5 2 -0.6 109 0 1 4
-5 2.4 -0.6 109 0 1 4
-5 2.8 -0.6 107 0 1 4
-5 4 -0.6 99 0 1 4
-5 4.4 -0.6 112 0 1 4
-5 4.8 -0.4 107 0 1 4
-5 5.3 -0.3 112 0 1 4
-5 6.1 0 129 0 1 1
-5 6.5 0 135 0 1 1
-5 6.8 0 132 0 1 1
-5 7.2 0.1 109 0 1 5
-5 8.3 0.7 102 0 1 5
-5 9.4 1.5 99 0 1 5
-5 10.5 2.3 114 0 1 5
-4.9 7.6 0.2 115 0 1 5
-4.9 8.7 1 114 0 1 5
-4.9 9.7 1.8 111 0 1 5
-4.9 10.8 2.5 99 0 1 5
-4.8 1.4 -0.3 90 0 1 1
-4.8 5.3 -0.3 120 0 1 1
-4.8 9 1.2 97 0 1 5
-4.8 10.1 2.1 115 0 1 5
-4.8 11.2 2.5 93 0 1 5
-4.7 0.7 -0.1 135 0 1 1
-4.7 6.8 0 125 0 1 1
-4.7 7.9 0.4 136 0 1 5
-4.7 10.4 2.3 124 0 1 5
-4.6 1 -0.2 137 0 1 1
-4.6 1.4 -0.3 108 0 1 1
-4.6 1.7 -0.4 102 0 1 4
-4.6 2.4 -0.6 99 0 1 4
-4.6 2.8 -0.6 98 0 1 4
-4.6 3.2 -0.6 103 0 1 4
-4.6 3.6 -0.7 103 0 1 4
-4.6 4 -0.6 93 0 1 4
-4.6 4.4 -0.6 94 0 1 4
-4.6 4.8 -0.5 88 0 1 4
-4.6 5.3 -0.3 115 0 1 4
-4.6 5.7 -0.2 123 0 1 1
-4.6 6.1 0 134 0 1 1
-4.6 6.5 0 131 0 1 1
-4.6 7.2 0 119 0 1 5
-4.6 8.3 0.7 116 0 1 5
-4.6 9.4 1.5 114 0 1 5
-4.5 7.5 0.2 120 0 1 5
-4.5 8.6 0.9 115 0 1 5
-4.5 9.7 1.8 117 0 1 5
-4.5 10.8 2.4 89 0 1 5
-4.4 1.4 -0.2 107 0 1 1
-4.4 5.3 -0.3 118 0 1 1
-4.4 7.9 0.4 67 0 1 5
-4.4 9 1.2 129 0 1 5
-4.4 10 2.1 113 0 1 5
-4.4 11.1 2.5 102 0 1 5
-4.3 0.7 -0.1 130 0 1 1
-4.3 2.5 -0.5 105 0 1 4
-4.3 2.9 -0.5 97 0 1 4
-4.3 3.3 -0.5 74 0 1 4
-4.3 3.7 -0.5 88 0 1 4
-4.3 6.1 0 139 0 1 1
-4.3 6.5 0 121 0 1 1
-4.3 6.9 0 133 0 1 1
-4.3 8.2 0.6 115 0 1 5
-4.3 9.3 1.4 117 0 1 5
-4.3 10.4 2.2 119 0 1 5
-4.2 1.4 -0.2 113 0 1 1
-4.2 1.7 -0.3 107 0 1 4
-4.2 2.1 -0.5 108 0 1 4
-4.2 4.1 -0.5 97 0 1 4
-4.2 4.4 -0.4 101 0 1 4
-4.2 4.9 -0.3 86 0 1 4
-4.2 5.3 -0.2 111 0 1 4
-4.2 7.1 0 114 0 1 5
-4.2 9.7 1.7 115 0 1 5
-4.2 10.7 2.4 141 0 1 5
-4.1 1.4 -0.2 130 0 1 1
-4.1 5.3 -0.2 112 0 1 1
-4.1 7.5 0.2 116 0 1 5
-4.1 8.6 0.8 130 0 1 5
-4.1 11.1 2.4 139 0 1 5
-4 7.8 0.4 111 0 1 5
-4 8.9 1.1 125 0 1 5
-4 10 1.9 126 0 1 5
-3.9 1.1 -0.1 130 0 1 1
-3.9 1.4 -0.1 111 0 1 1
-3.9 1.6 -0.2 119 0 1 1
-3.9 1.8 -0.2 107 0 1 1
-3.9 2.1 -0.4 88 0 1 4
-3.9 2.5 -0.3 95 0 1 4
-3.9 2.9 -0.3 103 0 1 4
-3.9 3.4 -0.3 94 0 1 4
-3.9 3.8 -0.3 102 0 1 4
-3.9 4.1 -0.3 101 0 1 4
-3.9 4.5 -0.3 99 0 1 4
-3.9 4.9 -0.2 93 0 1 4
-3.9 5.1 -0.2 117 0 1 1
-3.9 5.3 -0.2 126 0 1 4
-3.9 5.7 -0.1 126 0 1 1
-3.9 6.1 0 92 0 1 1
-3.9 6.5 0 90 0 1 1
-3.9 6.9 -0.1 118 0 1 1
-3.9 7.1 0 119 0 1 5
-3.9 8.2 0.6 124 0 1 5
-3.9 9.3 1.3 97 0 1 5
-3.9 10.4 2.1 131 0 1 5
-3.9 11.4 2.3 146 0 1 5
-3.8 7.4 0.1 116 0 1 5
-3.8 8.5 0.7 106 0 1 5
-3.8 9.6 1.5 123 0 1 5
-3.8 10.7 2.2 128 0 1 5
-3.8 14 2.1 137 0 1 5
-3.7 2 -0.2 100 0 1 1
-3.7 4.7 -0.2 132 0 1 1
-3.7 8.9 0.9 121 0 1 5
-3.7 10 1.8 133 0 1 5
-3.7 11.1 2.3 125 0 1 5
-3.7 14.3 2.3 76 0 1 5
-3.6 7.8 0.3 86 0 1 5
-3.6 10.3 1.9 129 0 1 5
-3.6 13.6 2.1 106 0 1 5
-3.5 1.4 -0.1 94 0 1 1
-3.5 2.2 -0.2 116 0 1 1
-3.5 2.6 -0.2 99 0 1 4
-3.5 3 -0.2 88 0 1 4
-3.5 3.4 -0.2 96 0 1 4
-3.5 3.8 -0.2 102 0 1 4
-3.5 4.2 -0.2 100 0 1 4
-3.5 4.5 -0.2 115 0 1 4
-3.5 5.3 -0.1 128 0 1 1
-3.5 5.7 -0.1 135 0 1 1
-3.5 6.1 0 134 0 1 1
-3.5 6.5 -0.1 126 0 1 1
-3.5 6.9 -0.1 132 0 1 1
-3.5 8.1 0.5 109 0 1 5
-3.5 9.2 1.2 136 0 1 5
-3.5 13.9 2.3 86 0 1 5
-3.4 7.4 0.1 125 0 1 5
-3.4 8.5 0.7 114 0 1 5
-3.4 9.6 1.4 96 0 1 5
-3.4 10.7 2.1 137 0 1 5
-3.3 2.2 -0.2 116 0 1 1
-3.3 4.6 -0.1 103 0 1 1
-3.3 7.7 0.2 121 0 1 5
-3.3 8.8 0.8 123 0 1 5
-3.3 9.9 1.6 131 0 1 5
-3.3 11 2.1 136 0 1 5
-3.3 13.2 2.1 114 0 1 5
-3.2 3 -0.1 107 0 1 1
-3.2 8.1 0.4 126 0 1 5
-3.2 9.2 1 130 0 1 5
-3.2 10.3 1.8 123 0 1 5
-3.2 11.4 2.1 127 0 1 5
-3.2 13.5 2.3 107 0 1 5
-3.1 1.4 0 125 0 1 1
-3.1 1.8 -0.1 130 0 1 1
-3.1 2.2 -0.1 124 0 1 1
-3.1 2.4 -0.1 81 0 1 1
-3.1 2.6 -0.1 114 0 1 4
-3.1 2.8 -0.1 135 0 1 1
-3.1 3.2 -0.1 99 0 1 1
-3.1 3.4 -0.1 114 0 1 1
-3.1 3.7 -0.1 120 0 1 1
-3.1 3.9 -0.1 107 0 1 1
-3.1 4 -0.1 112 0 1 1
-3.1 4.2 0 110 0 1 4
-3.1 4.4 0 137 0 1 1
-3.1 4.6 0 137 0 1 4
-3.1 4.9 0 125 0 1 1
-3.1 5.3 0 143 0 1 1
-3.1 5.7 0 134 0 1 1
-3.1 6.1 -0.1 119 0 1 1
-3.1 6.5 -0.1 94 0 1 1
-3.1 6.9 -0.1 122 0 1 1
-3.1 9.5 1.2 136 0 1 5
-3.1 10.6 1.9 140 0 1 5
-3.1 13.9 2.4 119 0 1 5
-3 7.4 -0.1 110 0 1 5
-3 8.4 0.5 124 0 1 5
-3 11 2 137 0 1 5
-3 13.2 2.2 125 0 1 5
-3 14.2 2.5 82 0 1 5
-2.9 7.7 0.1 116 0 1 5
-2.9 8.8 0.7 127 0 1 5
-2.9 9.9 1.4 137 0 1 5
-2.9 13.5 2.3 110 0 1 5
-2.8 3 -0.1 133 0 1 1
-2.8 6.1 -0.1 129 0 1 1
-2.8 6.5 -0.1 114 0 1 1
-2.8 7.3 -0.1 93 0 1 1
-2.8 8.1 0.3 120 0 1 5
-2.8 9.1 0.9 133 0 1 5
-2.8 10.2 1.6 128 0 1 5
-2.8 11.3 2.1 135 0 1 5
-2.7 1.8 -0.1 129 0 1 1
-2.7 2.2 -0.1 112 0 1 1
-2.7 3.8 -0.1 140 0 1 1
-2.7 4.5 0 140 0 1 1
-2.7 4.9 0 137 0 1 1
-2.7 5.3 0 128 0 1 1
-2.7 5.7 -0.1 132 0 1 1
-2.7 6.9 -0.1 136 0 1 1
-2.7 8.4 0.4 133 0 1 5
-2.7 9.5 1.1 123 0 1 5
-2.7 10.6 1.8 137 0 1 5
-2.7 13.9 2.5 91 0 1 5
-2.6 8.8 0.6 121 0 1 5
-2.6 9.8 1.3 130 0 1 5
-2.6 10.9 1.9 131 0 1 5
-2.6 13.1 2.2 121 0 1 5
-2.5 7.7 0 130 0 1 5
-2.5 10.2 1.5 138 0 1 5
-2.5 11.3 2.1 116 0 1 5
-2.5 13.5 2.4 123 0 1 5
-2.4 2.6 -0.1 123 0 1 1
-2.4 3 -0.1 127 0 1 1
-2.4 3.4 -0.1 129 0 1 1
-2.4 4.9 -0.1 137 0 1 1
-2.4 5.3 -0.1 132 0 1 1
-2.4 5.7 -0.1 138 0 1 1
-2.4 6.1 -0.1 134 0 1 1
-2.4 6.5 -0.1 96 0 1 1
-2.4 7 -0.1 127 0 1 1
-2.4 7.3 -0.1 126 0 1 1
-2.4 7.7 -0.1 93 0 1 1
-2.4 8 0.1 132 0 1 5
-2.4 9.1 0.7 137 0 1 5
-2.4 12.7 2.1 125 0 1 5
-2.4 13.8 2.4 123 0 1 5
-2.3 2.2 -0.1 123 0 1 1
-2.3 3.8 -0.1 134 0 1 1
-2.3 4.1 -0.1 129 0 1 1
-2.3 4.5 0 115 0 1 1
-2.3 8.4 0.3 133 0 1 5
-2.3 9.4 0.9 137 0 1 5
-2.3 10.5 1.7 137 0 1 5
-2.3 14.2 2.4 111 0 1 5
-2.2 8.7 0.4 137 0 1 5
-2.2 9.8 1.1 136 0 1 5
-2.2 10.9 1.9 127 0 1 5
-2.2 13.1 2.3 122 0 1 5
-2.1 8 -0.1 139 0 1 5
-2.1 9.1 0.6 137 0 1 5
-2.1 10.1 1.3 131 0 1 5
-2.1 11.2 2 138 0 1 5
-2.1 13.4 2.3 133 0 1 5
-2 2.7 0 117 0 1 1
-2 3 0 132 0 1 1
-2 4.9 -0.1 105 0 1 1
-2 5.3 -0.1 133 0 1 1
-2 5.7 -0.1 111 0 1 1
-2 6.1 -0.1 138 0 1 1
-2 6.5 0 111 0 1 1
-2 7 0 139 0 1 1
-2 7.3 0 128 0 1 1
-2 7.7 0 129 0 1 1
-2 9.4 0.7 147 0 1 5
-2 10.5 1.5 88 0 1 5
-2 11.6 2.1 119 0 1 5
-2 12.7 2.2 117 0 1 5
-2 13.8 2.4 97 0 1 5
-1.9 2.3 0 127 0 1 1
-1.9 3.4 0 130 0 1 1
-1.9 3.8 -0.1 134 0 1 1
-1.9 4.1 -0.1 128 0 1 1
-1.9 4.2 0 93 0 1 2
-1.9 8.3 0.1 137 0 1 5
-1.9 10.8 1.7 116 0 1 5
-1.9 11.9 2.1 134 0 1 5
-1.9 13 2.3 116 0 1 5
-1.8 3.8 0 85 0 1 2
-1.8 3.8 0.1 120 0 1 2
-1.8 4.1 0.2 123 0 1 2
-1.8 8.7 0.2 142 0 1 5
-1.8 9.8 0.9 139 0 1 5
-1.8 13.4 2.3 130 0 1 5
-1.7 3.7 0 60 0 1 2
-1.7 3.7 0.1 93 0 1 2
-1.7 9 0.4 145 0 1 5
-1.7 10.1 1.1 134 0 1 5
-1.7 11.2 1.9 134 0 1 5
-1.7 12.3 2.2 128 0 1 5
-1.6 2.7 0 130 0 1 1
-1.6 3 0 133 0 1 1
-1.6 4.1 0.2 120 0 1 2
-1.6 4.2 0.2 100 0 1 2
-1.6 4.9 -0.1 133 0 1 1
-1.6 5.3 -0.1 127 0 1 1
-1.6 5.7 -0.1 127 0 1 1
-1.6 6.1 0 134 0 1 1
-1.6 6.5 0 121 0 1 1
-1.6 9.4 0.5 137 0 1 5
-1.6 10.5 1.3 117 0 1 5
-1.6 11.5 2 132 0 1 5
-1.6 12.6 2.2 130 0 1 5
-1.6 13.7 2.3 120 0 1 5
-1.5 3.4 0 135 0 1 1
-1.5 3.7 -0.1 135 0 1 1
-1.5 4.3 0.2 134 0 1 2
-1.5 7 0 103 0 1 1
-1.5 7.4 0 133 0 1 1
-1.5 7.8 0 132 0 1 1
-1.5 8.1 0 120 0 1 1
-1.5 8.6 0.1 133 0 1 5
-1.5 9.7 0.7 143 0 1 5
-1.5 10.8 1.6 138 0 1 5
-1.5 11.9 2.1 116 0 1 5
-1.5 13 2.2 137 0 1 5
-1.5 14.1 2.3 119 0 1 5
-1.4 3.7 0.1 70 0 1 2
-1.4 3.8 0.2 121 0 1 2
-1.4 4.1 0.2 57 0 1 2
-1.4 10.1 0.9 127 0 1 5
-1.4 11.2 1.7 119 0 1 5
-1.4 12.2 2.1 129 0 1 5
-1.4 13.3 2.2 132 0 1 5
-1.3 4.1 0.2 123 0 1 2
-1.3 4.3 0.1 131 0 1 2
-1.3 4.3 0.2 141 0 1 2
-1.3 5.3 -0.1 132 0 1 1
-1.3 9 0.2 141 0 1 5
-1.3 12.6 2.2 120 0 1 5
-1.3 13.7 2.2 113 0 1 5
-1.2 3 0 131 0 1 1
-1.2 3.4 0 120 0 1 1
-1.2 3.9 0.2 143 0 1 2
-1.2 4 0.2 136 0 1 2
-1.2 4.1 0.1 135 0 1 2
-1.2 4.2 0.1 135 0 1 2
-1.2 4.3 0 133 0 1 2
-1.2 4.6 0 135 0 1 1
-1.2 4.9 0 130 0 1 1
-1.2 5.7 -0.1 135 0 1 1
-1.2 6.1 -0.1 139 0 1 1
-1.2 6.5 0 130 0 1 1
-1.2 7 0 128 0 1 1
-1.2 7.3 0 119 0 1 1
-1.2 7.7 0 110 0 1 1
-1.2 8.1 0 152 0 1 1
-1.2 8.4 -0.1 128 0 1 1
-1.2 9.3 0.3 138 0 1 5
-1.2 10.4 1.1 142 0 1 5
-1.2 11.5 1.9 147 0 1 5
-1.1 3.8 0 138 0 1 2
-1.1 3.8 0.1 140 0 1 2
-1.1 4 0 129 0 1 2
-1.1 4 0.1 134 0 1 2
-1.1 4.2 0 127 0 1 2
-1.1 4.3 0 115 0 1 2
-1.1 9.7 0.5 144 0 1 5
-1.1 10.8 1.4 145 0 1 5
-1.1 11.9 2 123 0 1 5
-1.1 12.9 2.1 138 0 1 5
-1 8.9 0 142 0 1 5
-1 10 0.7 110 0 1 5
-1 11.1 1.6 149 0 1 5
-1 12.2 2 146 0 1 5
-1 13.3 2.2 134 0 1 5
-0.9 5 0 128 0 1 1
-0.9 5.4 -0.1 133 0 1 1
-0.9 5.7 -0.1 135 0 1 1
-0.9 9.3 0.1 146 0 1 5
-0.9 10.4 0.9 146 0 1 5
-0.9 11.5 1.7 146 0 1 5
-0.9 12.6 2 147 0 1 5
-0.9 13.6 2.1 144 0 1 5
-0.8 3.1 0 127 0 1 1
-0.8 3.5 0 120 0 1 1
-0.8 3.8 0 81 0 1 1
-0.8 4.2 0 93 0 1 1
-0.8 4.6 0 148 0 1 1
-0.8 6.1 -0.1 137 0 1 1
-0.8 6.5 -0.1 128 0 1 1
-0.8 6.9 0 130 0 1 1
-0.8 7.3 0 90 0 1 1
-0.8 7.7 0 119 0 1 1
-0.8 8 0 136 0 1 1
-0.8 8.4 0 129 0 1 1
-0.8 8.8 0 122 0 1 1
-0.8 10.7 1.1 155 0 1 5
-0.8 11.8 1.8 150 0 1 5
-0.8 12.9 2 142 0 1 5
-0.8 14 2.1 87 0 1 5
-0.7 9.1 0 104 0 1 5
-0.7 9.6 0.3 132 0 1 5
-0.7 13.3 2 142 0 1 5
-0.6 10 0.5 142 0 1 5
-0.6 11.1 1.3 148 0 1 5
-0.6 12.2 1.8 150 0 1 5
-0.5 5.4 0 132 0 1 1
-0.5 5.7 0 132 0 1 1
-0.5 6.1 0 139 0 1 1
-0.5 10.3 0.7 151 0 1 5
-0.5 11.4 1.4 148 0 1 5
-0.5 12.5 1.8 150 0 1 5
-0.5 13.6 2 125 0 1 5
-0.4 3.4 0 94 0 1 1
-0.4 3.8 0 131 0 1 1
-0.4 4.2 0 129 0 1 1
-0.4 4.6 0 89 0 1 1
-0.4 5 0 137 0 1 1
-0.4 6.5 0 134 0 1 1
-0.4 6.9 0 99 0 1 1
-0.4 7.3 0 132 0 1 1
-0.4 7.7 0 132 0 1 1
-0.4 8 0 140 0 1 1
-0.4 8.4 0 133 0 1 1
-0.4 8.8 0 131 0 1 1
-0.4 9.2 0 135 0 1 1
-0.4 9.6 0.1 97 0 1 5
-0.4 10.7 0.8 155 0 1 5
-0.4 11.8 1.5 152 0 1 5
-0.4 12.9 1.8 139 0 1 5
-0.4 14 1.9 150 0 1 5
-0.3 9.9 0.2 127 0 1 5
-0.3 11 1 141 0 1 5
-0.3 12.1 1.6 141 0 1 5
-0.3 13.2 1.8 145 0 1 5
-0.3 14.3 1.8 153 0 1 5
-0.2 12.5 1.5 150 0 1 5
-0.2 13.6 1.7 152 0 1 5
0 3.8 0 128 0 1 1
0 4.2 0 128 0 1 1
0 4.6 0 106 0 1 1
0 5 0 149 0 1 1
-0.1 5.4 0 139 0 1 1
-0.1 5.7 0 136 0 1 1
-0.1 6.1 0 137 0 1 1
0 6.4 0 137 0 1 1
0 6.8 0 140 0 1 1
0 7.2 0 134 0 1 1
0 7.6 0 112 0 1 1
0 8 0 121 0 1 1
-0.1 8.4 0 130 0 1 1
0 8.8 0 131 0 1 1
0 9.2 0 139 0 1 1
0 9.6 0 133 0 1 1
-0.1 9.7 0.1 130 0 1 5
0 10 0 138 0 1 1
-0.1 10.3 0.4 149 0 1 5
0 10.6 0.6 147 0 1 5
-0.1 11.4 1.1 133 0 1 5
0 11.7 1.2 144 0 1 5
0 12.8 1.6 142 0 1 5
-0.1 13.9 1.7 139 0 1 5
0.1 9.9 0.1 131 0 1 5
0.1 11 0.7 152 0 1 5
0.1 12.1 1.2 132 0 1 5
0.1 13.2 1.5 144 0 1 5
0.1 14.3 1.6 156 0 1 5
0.2 10.2 0.2 146 0 1 5
0.2 11.3 0.8 142 0 1 5
0.2 12.4 1.2 145 0 1 5
0.2 13.5 1.5 154 0 1 5
0.2 14.6 1.5 158 0 1 5
0.3 5.4 0 82 0 1 1
0.3 5.7 0 77 0 1 1
0.3 6.1 0 130 0 1 1
0.3 6.4 0 135 0 1 1
0.3 7.6 0 126 0 1 1
0.3 8 0 122 0 1 1
0.3 8.4 0 136 0 1 1
0.3 8.8 0 133 0 1 1
0.3 10.6 0.3 151 0 1 5
0.3 10.7 0 134 0 1 1
0.3 11.1 0 126 0 1 1
0.3 11.7 0.8 132 0 1 5
0.3 12.8 1.2 145 0 1 5
0.3 13.9 1.4 159 0 1 5
0.4 4.2 0 130 0 1 1
0.4 4.6 0 126 0 1 1
0.4 5 0 130 0 1 1
0.4 6.8 0 131 0 1 1
0.4 7.2 0 80 0 1 1
0.4 9.2 0 137 0 1 1
0.4 9.6 0 141 0 1 1
0.4 10 0 107 0 1 1
0.4 10.1 0 111 0 1 5
0.4 10.3 0 119 0 1 1
0.4 13.1 1.2 139 0 1 5
0.4 14.2 1.3 93 0 1 5
0.5 10.9 0.4 147 0 1 5
0.5 12 0.8 141 0 1 5
0.6 11.3 0.4 147 0 1 5
0.6 12.4 0.8 131 0 1 5
0.6 13.5 1.1 146 0 1 5
0.7 5.3 0.1 136 0 1 1
0.7 5.7 0 134 0 1 1
0.7 6.1 0 137 0 1 1
0.7 6.4 0 137 0 1 1
0.7 6.8 0 134 0 1 1
0.7 7.2 0 88 0 1 1
0.7 7.6 0 125 0 1 1
0.7 8 0 141 0 1 1
0.7 8.4 0 134 0 1 1
0.7 8.8 0 134 0 1 1
0.7 9.2 0 144 0 1 1
0.7 9.6 0 138 0 1 1
0.7 10 0 135 0 1 1
0.7 10.3 0 124 0 1 1
0.7 10.6 0.1 130 0 1 5
0.7 10.7 0 123 0 1 1
0.7 11.6 0.5 138 0 1 5
0.7 12.7 0.8 127 0 1 5
0.7 13.8 1.1 155 0 1 5
0.8 5 0 132 0 1 1
0.8 10.9 0.1 142 0 1 5
0.8 12 0.5 137 0 1 5
0.8 13.1 0.8 136 0 1 5
0.8 14.2 1 146 0 1 5
0.9 6.9 0 140 0 1 2
0.9 7 0 136 0 1 2
0.9 12.3 0.5 145 0 1 5
0.9 13.4 0.8 151 0 1 5
0.9 14.5 0.9 150 0 1 5
1 6.9 0.1 70 0 1 2
1 6.9 0.2 92 0 1 2
1 7.2 0.1 125 0 1 2
1 7.2 0.2 126 0 1 2
1 10.4 0 134 0 1 1
1 10.7 0 138 0 1 1
1 11.3 0.2 143 0 1 5
1 13.8 0.7 148 0 1 5
1 14.9 0.8 152 0 1 5
1.1 6.8 0 84 0 1 2
1.1 6.9 0.2 128 0 1 2
1.1 7.5 0.1 129 0 1 2
1.1 8 0 134 0 1 1
1.1 8.4 0 125 0 1 1
1.1 8.8 0 143 0 1 1
1.1 9.2 0 127 0 1 1
1.1 9.6 0 131 0 1 1
1.1 10 0 140 0 1 1
1.1 11.6 0.2 154 0 1 5
1.1 12.7 0.5 146 0 1 5
1.2 12 0.2 134 0 1 5
1.2 13 0.4 134 0 1 5
1.2 14.1 0.7 153 0 1 5
1.3 12.3 0.2 145 0 1 5
1.3 13.4 0.4 139 0 1 5
1.3 14.5 0.6 142 0 1 5
1.4 9.6 0 146 0 1 1
1.4 10 0.1 140 0 1 1
1.4 10.4 0 129 0 1 1
1.4 10.8 0 137 0 1 1
1.4 11.1 0 140 0 1 1
1.4 11.4 0 129 0 1 1
1.4 11.8 0 144 0 1 1
1.4 12.2 0 142 0 1 1
1.4 12.6 0 140 0 1 1
1.4 12.7 0.1 147 0 1 5
1.4 13.7 0.4 139 0 1 5
1.4 14.8 0.5 146 0 1 5
1.5 13 0.1 132 0 1 5
1.5 14.1 0.4 150 0 1 5
1.5 15.2 0.4 148 0 1 5
1.6 14.4 0.3 146 0 1 5
1.7 13.4 0.1 145 0 1 5
1.8 11.4 0 145 0 1 1
1.8 11.8 0 149 0 1 1
1.8 12.3 -0.1 150 0 1 1
1.8 12.6 -0.1 140 0 1 1
1.8 13 -0.1 148 0 1 1
1.8 13.4 0 132 0 1 1
1.8 13.7 0.1 146 0 1 5
1.8 14.8 0.4 146 0 1 5
1.9 13.8 0 138 0 1 1
1.9 14.1 0.1 142 0 1 5
1.9 15.1 0.4 145 0 1 5
2 14.4 0.2 145 0 1 5
2.1 14.8 0.2 138 0 1 5
2.2 14.2 0 139 0 1 1
2.2 14.6 0 135 0 1 1
2.2 18.8 0 148 0 1 1
2.2 19.2 0 139 0 1 1
2.2 19.5 0 133 0 1 1
2.6 18 0 135 0 1 1
2.6 18.4 0 135 0 1 1
2.6 18.8 0 137 0 1 1
2.6 19.2 0 139 0 1 1
2.6 19.5 0 139 0 1 1
2.6 19.7 0 127 0 1 1
2.7 17.3 0 140 0 1 1
2.7 17.6 0 137 0 1 1
3 19.4 0 128 0 1 1
3 19.6 0 92 0 1 1
