2.4 -5.2 -0.4 127 0 1 1
2.4 -4.7 -0.4 118 0 1 1
2.4 -4.3 -0.4 118 0 1 1
2.5 -3.8 -0.4 144 0 1 1
2.5 -3.4 -0.4 137 0 1 1
2.9 -6 -0.4 106 0 1 1
2.9 -5.6 -0.4 120 0 1 1
2.9 -5.2 -0.4 130 0 1 1
2.9 -4.8 -0.4 130 0 1 1
2.9 -4.3 -0.5 133 0 1 1
2.9 -3.8 -0.4 149 0 1 1
2.9 -3.4 -0.4 149 0 1 1
2.9 -3 -0.4 151 0 1 1
3 -2.5 -0.4 145 0 1 1
3 -2.1 -0.3 140 0 1 1
3 -1.6 -0.3 138 0 1 1
3 -1.1 -0.2 133 0 1 1
3.3 -5.6 -0.4 133 0 1 1
3.3 -5.2 -0.5 115 0 1 1
3.3 -4.8 -0.5 138 0 1 1
3.3 -4.3 -0.5 140 0 1 1
3.3 -3.9 -0.5 138 0 1 1
3.3 -3.4 -0.5 154 0 1 1
3.4 -6.9 -0.3 107 0 1 1
3.4 -6.5 -0.4 123 0 1 1
3.4 -6.1 -0.4 129 0 1 1
3.4 -3 -0.4 143 0 1 1
3.4 -2.5 -0.4 146 0 1 1
3.4 -2.1 -0.4 144 0 1 1
3.4 -1.6 -0.3 140 0 1 1
3.4 -1.2 -0.3 142 0 1 1
3.4 -0.7 -0.2 132 0 1 1
3.4 -0.2 -0.2 133 0 1 1
3.5 0.3 -0.2 139 0 1 1
3.5 0.7 -0.2 141 0 1 1
3.6 -7.1 -0.2 120 0 1 5
3.6 -7 -0.3 119 0 1 5
3.7 -7.3 0 95 0 1 5
3.7 -7 -0.3 111 0 1 5
3.7 -4.4 -0.5 124 0 1 1
3.7 1.1 0.1 92 0 1 2
3.7 1.3 0.2 129 0 1 2
3.7 1.4 0.1 57 0 1 2
3.8 -7.7 0.3 115 0 1 5
3.8 -7.5 0.1 104 0 1 5
3.8 -6.5 -0.4 117 0 1 1
3.8 -6.1 -0.4 114 0 1 1
3.8 -5.7 -0.4 126 0 1 1
3.8 -5.2 -0.5 122 0 1 1
3.8 -4.8 -0.5 110 0 1 1
3.8 -3.9 -0.5 127 0 1 1
3.8 -3.4 -0.5 130 0 1 1
3.8 -3 -0.4 137 0 1 1
3.8 -2.6 -0.4 146 0 1 1
3.8 -2.1 -0.4 150 0 1 1
3.8 -1.7 -0.3 152 0 1 1
3.8 -1.2 -0.3 147 0 1 1
3.8 1.2 0.2 122 0 1 2
3.9 -7 -0.2 116 0 1 5
3.9 -6.9 -0.3 124 0 1 1
3.9 -0.7 -0.2 136 0 1 1
3.9 -0.2 -0.2 140 0 1 1
3.9 0.2 -0.2 143 0 1 1
3.9 0.7 -0.2 142 0 1 1
3.9 1.3 0.2 151 0 1 2
3.9 1.7 -0.1 54 0 1 2
3.9 1.7 0.1 86 0 1 2
3.9 2.1 -0.1 140 0 1 1
4 -7.2 -0.1 115 0 1 5
4 -6.9 -0.3 113 0 1 5
4 1.1 0.2 128 0 1 2
4 1.7 0.1 125 0 1 2
4 1.7 0.2 145 0 1 2
4 1.8 -0.1 133 0 1 2
4.1 -7.6 0.3 113 0 1 5
4.1 -7.4 0.1 113 0 1 5
4.1 1 0.1 112 0 1 2
4.1 1.3 0.2 155 0 1 2
4.2 -7.8 0.4 122 0 1 5
4.2 -6.9 -0.2 111 0 1 5
4.2 -6.1 -0.4 122 0 1 1
4.2 -5.6 -0.4 140 0 1 1
4.2 -5.2 -0.4 133 0 1 1
4.2 -4.8 -0.5 132 0 1 1
4.2 -4.4 -0.5 125 0 1 1
4.2 -3.9 -0.5 130 0 1 1
4.2 -3.4 -0.4 137 0 1 1
4.2 -3 -0.4 129 0 1 1
4.2 -2.5 -0.4 141 0 1 1
4.2 -2.1 -0.3 156 0 1 1
4.2 0.9 -0.2 150 0 1 2
4.2 0.9 0 149 0 1 2
4.3 -8.2 0.7 81 0 1 5
4.3 -8 0.5 139 0 1 5
4.3 -7.1 -0.1 113 0 1 5
4.3 -6.8 -0.3 119 0 1 5
4.3 -6.5 -0.3 120 0 1 1
4.3 -1.6 -0.3 152 0 1 1
4.3 -1.2 -0.2 146 0 1 1
4.3 -0.7 -0.2 144 0 1 1
4.3 -0.2 -0.2 144 0 1 1
4.3 0.3 -0.1 147 0 1 1
4.3 0.7 -0.1 151 0 1 1
4.3 1.3 0.1 146 0 1 2
4.3 1.5 0.2 144 0 1 2
4.3 2.1 -0.1 143 0 1 1
4.4 -8.4 0.8 96 0 1 5
4.4 -7.5 0.3 118 0 1 5
4.4 -7.3 0.1 119 0 1 5
4.5 -8.8 1 112 0 1 5
4.5 -8.6 0.9 109 0 1 5
4.5 -7.7 0.5 116 0 1 5
4.5 -6.8 -0.2 113 0 1 5
4.6 -9 1.2 120 0 1 5
4.6 -8.1 0.7 89 0 1 5
4.6 -7.9 0.6 63 0 1 5
4.6 -7.2 0.1 116 0 1 5
4.6 -7 -0.1 112 0 1 5
4.6 -6.7 -0.3 122 0 1 5
4.6 -4.3 -0.5 129 0 1 1
4.7 -9.2 1.3 100 0 1 5
4.7 -8.3 0.8 98 0 1 5
4.7 -7.4 0.3 115 0 1 5
4.7 -6.5 -0.3 118 0 1 1
4.7 -6 -0.4 121 0 1 1
4.7 -5.6 -0.4 119 0 1 1
4.7 -5.2 -0.4 111 0 1 1
4.7 -4.8 -0.5 111 0 1 1
4.7 -3.9 -0.5 122 0 1 1
4.7 -3.5 -0.5 135 0 1 1
4.7 -3 -0.4 140 0 1 1
4.7 -2.5 -0.4 138 0 1 1
4.7 -2 -0.4 140 0 1 1
4.7 -1.6 -0.3 143 0 1 1
4.7 -1.2 -0.2 150 0 1 1
4.7 -0.7 -0.2 153 0 1 1
4.7 -0.2 -0.1 152 0 1 1
4.8 -8.7 1.2 120 0 1 5
4.8 -8.5 1 106 0 1 5
4.8 -7.8 0.6 100 0 1 5
4.8 -7.6 0.5 117 0 1 5
4.8 -6.7 -0.2 119 0 1 5
4.8 0.2 -0.1 157 0 1 1
4.8 0.7 -0.1 150 0 1 1
4.8 1.1 -0.1 152 0 1 1
4.8 2.1 -0.1 148 0 1 1
4.9 -8.9 1.3 114 0 1 5
4.9 -8 0.8 104 0 1 5
4.9 -7.1 0.1 114 0 1 5
4.9 -6.9 0 114 0 1 5
4.9 -6.7 -0.2 124 0 1 5
4.9 -6.6 -0.3 119 0 1 5
5 -9.3 1.6 93 0 1 5
5 -9.1 1.5 102 0 1 5
5 -8.2 0.9 109 0 1 5
5 -7.3 0.3 125 0 1 5
5 -6.8 -0.1 126 0 1 5
5.1 -9.5 1.8 96 0 1 5
5.1 -8.6 1.2 134 0 1 5
5.1 -8.4 1.1 128 0 1 5
5.1 -7.7 0.7 126 0 1 5
5.1 -7.5 0.5 118 0 1 5
5.1 -6.8 -0.1 129 0 1 5
5.1 -6.6 -0.2 118 0 1 5
5.1 -6.5 -0.3 116 0 1 1
5.1 -6 -0.3 118 0 1 1
5.1 -5.6 -0.4 131 0 1 1
5.1 -5.2 -0.4 126 0 1 1
5.1 -4.7 -0.5 117 0 1 1
5.1 -4.3 -0.6 141 0 1 1
5.1 -3.9 -0.6 136 0 1 1
5.1 -3.4 -0.6 138 0 1 1
5.1 -3 -0.5 131 0 1 1
5.1 -2.5 -0.5 131 0 1 1
5.1 -2.1 -0.5 146 0 1 1
5.1 -1.6 -0.4 143 0 1 1
5.1 -1.2 -0.3 149 0 1 1
5.1 -0.7 -0.2 146 0 1 1
5.2 -9.9 2.1 110 0 1 5
5.2 -9.7 2 106 0 1 5
5.2 -8.8 1.4 110 0 1 5
5.2 -7.9 0.8 136 0 1 5
5.2 -7 0.2 124 0 1 5
5.2 -0.2 -0.2 155 0 1 1
5.2 0.2 -0.1 158 0 1 1
5.2 0.7 -0.1 152 0 1 1
5.2 1.1 -0.1 151 0 1 1
5.2 1.6 -0.1 151 0 1 1
5.3 -10.1 2.1 113 0 1 5
5.3 -9.2 1.8 116 0 1 5
5.3 -9 1.6 103 0 1 5
5.3 -8.3 1.2 147 0 1 5
5.3 -8.1 1 136 0 1 5
5.3 -7.2 0.4 134 0 1 5
5.3 2.1 -0.1 151 0 1 1
5.3 2.5 0 146 0 1 1
5.4 -10.3 2.2 98 0 1 5
5.4 -9.4 1.9 108 0 1 5
5.4 -8.5 1.3 145 0 1 5
5.4 -7.6 0.7 154 0 1 5
5.4 -7.4 0.6 139 0 1 5
5.4 -6.7 -0.1 139 0 1 5
5.4 -6.5 -0.3 123 0 1 5
5.5 -10.7 2.5 110 0 1 5
5.5 -10.5 2.4 94 0 1 5
5.5 -9.8 2.1 120 0 1 5
5.5 -9.6 2 112 0 1 5
5.5 -8.9 1.7 126 0 1 5
5.5 -8.7 1.5 134 0 1 5
5.5 -7.8 0.9 164 0 1 5
5.5 -6.9 0.1 136 0 1 5
5.5 -6 -0.3 124 0 1 1
5.5 -5.6 -0.4 120 0 1 1
5.5 -5.1 -0.4 118 0 1 1
5.5 -4.7 -0.5 118 0 1 4
5.5 -4.3 -0.7 128 0 1 4
5.5 -3.9 -0.7 130 0 1 4
5.5 -3.5 -0.7 131 0 1 4
5.5 -3 -0.7 130 0 1 4
5.5 -2.6 -0.7 130 0 1 4
5.6 -10 2.2 112 0 1 5
5.6 -9.1 1.8 123 0 1 5
5.6 -8.2 1.2 167 0 1 5
5.6 -8 1.1 162 0 1 5
5.6 -7.3 0.5 158 0 1 5
5.6 -7.1 0.3 147 0 1 5
5.6 -6.4 -0.3 117 0 1 1
5.6 -2.1 -0.7 132 0 1 4
5.6 -1.7 -0.6 134 0 1 4
5.6 -1.2 -0.5 126 0 1 4
5.6 -0.7 -0.4 128 0 1 1
5.6 -0.2 -0.2 142 0 1 1
5.7 -10.4 2.5 98 0 1 5
5.7 -10.2 2.3 106 0 1 5
5.7 -9.3 1.9 117 0 1 5
5.7 -8.4 1.4 167 0 1 5
5.7 -7.5 0.7 164 0 1 5
5.7 -6.6 -0.1 146 0 1 5
5.7 -6.4 -0.3 118 0 1 5
5.7 0.2 -0.1 144 0 1 1
5.7 0.7 -0.1 146 0 1 1
5.7 1.2 -0.1 150 0 1 1
5.7 1.6 -0.1 150 0 1 1
5.7 2.1 0 148 0 1 1
5.7 2.5 0 141 0 1 1
5.8 -10.6 2.7 91 0 1 5
5.8 -9.7 2.1 124 0 1 5
5.8 -9.5 2.1 131 0 1 5
5.8 -8.8 1.6 137 0 1 5
5.8 -8.6 1.5 142 0 1 5
5.8 -7.9 1 114 0 1 5
5.8 -7.7 0.8 124 0 1 5
5.8 -6.8 0.1 147 0 1 5
5.8 -6.5 -0.2 140 0 1 5
5.8 2.8 0 140 0 1 5
5.9 -11 2.8 116 0 1 5
5.9 -10.8 2.7 114 0 1 5
5.9 -9.9 2.2 122 0 1 5
5.9 -9 1.8 123 0 1 5
5.9 -8.1 1.1 127 0 1 5
5.9 -7.2 0.4 160 0 1 5
5.9 -7 0.3 152 0 1 5
5.9 -6.3 -0.3 126 0 1 5
5.9 -4.4 -0.8 126 0 1 4
5.9 -3.9 -0.9 125 0 1 4
5.9 2.9 0.1 136 0 1 5
6 -11.2 2.8 93 0 1 5
6 -10.3 2.5 110 0 1 5
6 -10.1 2.3 112 0 1 5
6 -9.4 2 137 0 1 5
6 -9.2 1.9 129 0 1 5
6 -8.3 1.3 154 0 1 5
6 -7.4 0.6 161 0 1 5
6 -6.5 -0.2 142 0 1 5
6 -6.4 -0.2 142 0 1 5
6 -6 -0.3 124 0 1 1
6 -5.5 -0.4 133 0 1 1
6 -5.1 -0.5 122 0 1 1
6 -4.7 -0.6 127 0 1 4
6 -3.5 -0.9 131 0 1 4
6 -3.1 -0.9 132 0 1 4
6 -2.6 -0.9 129 0 1 4
6 -2.2 -0.8 128 0 1 4
6 -1.7 -0.8 126 0 1 4
6 -1.2 -0.6 123 0 1 4
6 -0.7 -0.5 119 0 1 4
6.1 -10.5 2.7 112 0 1 5
6.1 -9.6 2 133 0 1 5
6.1 -8.7 1.6 135 0 1 5
6.1 -8.5 1.5 145 0 1 5
6.1 -7.8 0.9 137 0 1 5
6.1 -7.6 0.7 143 0 1 5
6.1 -6.9 0.2 157 0 1 5
6.1 -6.7 0 154 0 1 5
6.1 -6.4 -0.2 138 0 1 5
6.1 -0.2 -0.3 133 0 1 1
6.1 0.3 -0.2 138 0 1 1
6.1 0.7 -0.1 146 0 1 1
6.1 1.2 -0.1 149 0 1 1
6.1 2.7 0 128 0 1 5
6.1 3.1 0.2 140 0 1 5
6.2 -10.9 2.8 105 0 1 5
6.2 -10.7 2.8 119 0 1 5
6.2 -10 2.3 125 0 1 5
6.2 -9.8 2.1 132 0 1 5
6.2 -8.9 1.8 132 0 1 5
6.2 -8 1 159 0 1 5
6.2 -7.1 0.3 156 0 1 5
6.2 1.6 -0.1 151 0 1 1
6.2 2.1 0 153 0 1 1
6.2 2.6 0 145 0 1 1
6.2 3.2 0.4 140 0 1 5
6.3 -11.1 2.9 118 0 1 5
6.3 -10.2 2.5 125 0 1 5
6.3 -9.3 1.9 140 0 1 5
6.3 -9.1 1.9 137 0 1 5
6.3 -8.4 1.3 158 0 1 5
6.3 -8.2 1.2 156 0 1 5
6.3 -7.3 0.5 156 0 1 5
6.3 -6.4 -0.2 145 0 1 5
6.3 -4.4 -0.9 129 0 1 4
6.3 -4 -1 127 0 1 4
6.3 2.9 0.2 136 0 1 5
6.4 -10.4 2.7 126 0 1 5
6.4 -9.5 2 134 0 1 5
6.4 -8.6 1.5 150 0 1 5
6.4 -7.7 0.8 151 0 1 5
6.4 -7.5 0.6 153 0 1 5
6.4 -6.8 0.1 153 0 1 5
6.4 -6.6 0 150 0 1 5
6.4 -6.4 -0.3 119 0 1 1
6.4 -6.3 -0.3 125 0 1 5
6.4 -5.9 -0.3 121 0 1 1
6.4 -5.5 -0.4 124 0 1 1
6.4 -5.1 -0.5 131 0 1 1
6.4 -4.8 -0.7 129 0 1 4
6.4 -3.5 -1 119 0 1 4
6.4 -3.1 -1 125 0 1 4
6.4 -2.6 -1 121 0 1 4
6.4 -1.7 -0.9 117 0 1 4
6.4 -1.2 -0.7 122 0 1 4
6.4 3 0.3 135 0 1 5
6.5 -10.8 2.8 100 0 1 5
6.5 -10.6 2.8 128 0 1 5
6.5 -9.9 2.3 133 0 1 5
6.5 -9.7 2 128 0 1 5
6.5 -9 1.8 146 0 1 5
6.5 -8.8 1.7 144 0 1 5
6.5 -7.9 0.9 166 0 1 5
6.5 -7 0.3 155 0 1 5
6.5 -2.2 -1 121 0 1 4
6.5 -0.7 -0.5 117 0 1 4
6.5 -0.2 -0.3 135 0 1 1
6.5 0.3 -0.2 138 0 1 1
6.5 0.8 -0.1 149 0 1 1
6.5 2.6 0.1 116 0 1 5
6.6 -10.1 2.5 133 0 1 5
6.6 -9.2 1.8 138 0 1 5
6.6 -8.3 1.3 140 0 1 5
6.6 -8.1 1.1 161 0 1 5
6.6 -7.4 0.6 167 0 1 5
6.6 -7.2 0.4 159 0 1 5
6.6 -6.3 -0.2 144 0 1 5
6.6 1.2 -0.1 152 0 1 1
6.6 1.7 -0.1 158 0 1 1
6.6 2.1 0 148 0 1 1
6.6 3.1 0.4 138 0 1 5
6.7 -10.5 2.8 118 0 1 5
6.7 -10.3 2.6 135 0 1 5
6.7 -9.4 1.9 130 0 1 5
6.7 -8.5 1.4 146 0 1 5
6.7 -7.6 0.7 170 0 1 5
6.7 -6.7 0.1 154 0 1 5
6.7 -6.5 -0.1 149 0 1 5
6.7 -6.2 -0.3 137 0 1 5
6.7 2.4 0 147 0 1 5
6.7 2.8 0.2 117 0 1 5
6.7 3.3 0.5 135 0 1 5
6.8 -9.8 2.2 126 0 1 5
6.8 -9.6 2 127 0 1 5
6.8 -8.9 1.7 146 0 1 5
6.8 -8.7 1.6 146 0 1 5
6.8 -8 1 152 0 1 5
6.8 -7.8 0.9 167 0 1 5
6.8 -6.9 0.2 158 0 1 5
6.8 -5.9 -0.3 121 0 1 1
6.8 -5.5 -0.4 125 0 1 1
6.8 -5.1 -0.5 130 0 1 1
6.8 -4.8 -0.7 129 0 1 4
6.8 -4.4 -0.9 130 0 1 4
6.8 -4 -1.1 111 0 1 4
6.8 -3.5 -1.1 115 0 1 4
6.8 2.9 0.3 127 0 1 5
6.9 -10 2.4 128 0 1 5
6.9 -9.1 1.9 132 0 1 5
6.9 -8.2 1.2 151 0 1 5
6.9 -7.3 0.5 153 0 1 5
6.9 -7.1 0.4 155 0 1 5
6.9 -6.4 -0.1 150 0 1 5
6.9 -6.2 -0.2 144 0 1 5
6.9 -3.1 -1.1 122 0 1 4
6.9 -2.7 -1.1 118 0 1 4
6.9 -2.2 -1 115 0 1 4
6.9 -1.7 -0.9 116 0 1 4
6.9 -1.2 -0.7 112 0 1 4
6.9 -0.7 -0.5 117 0 1 4
6.9 -0.2 -0.3 139 0 1 1
6.9 0.3 -0.2 136 0 1 1
6.9 2.6 0.1 131 0 1 5
6.9 3.1 0.4 134 0 1 5
6.9 3.4 0.6 128 0 1 5
7 -10.4 2.7 128 0 1 5
7 -10.2 2.6 140 0 1 5
7 -9.5 2 113 0 1 5
7 -9.3 1.9 123 0 1 5
7 -8.4 1.4 151 0 1 5
7 -7.5 0.7 153 0 1 5
7 -6.6 0 155 0 1 5
7 -6.2 -0.2 142 0 1 5
7 -6.1 -0.3 123 0 1 5
7 0.8 -0.1 143 0 1 1
7 1.2 -0.1 154 0 1 1
7 1.7 -0.1 157 0 1 1
7 2.7 0.2 121 0 1 5
7 3.6 0.7 127 0 1 5
7.1 -9.7 2.2 135 0 1 5
7.1 -8.8 1.7 146 0 1 5
7.1 -8.6 1.6 151 0 1 5
7.1 -7.9 1 156 0 1 5
7.1 -7.7 0.8 155 0 1 5
7.1 -7 0.3 159 0 1 5
7.1 -6.8 0.2 164 0 1 5
7.1 -6.3 -0.2 144 0 1 5
7.1 2.2 0 158 0 1 1
7.1 3.2 0.5 129 0 1 5
7.2 -10.1 2.5 118 0 1 5
7.2 -9.9 2.4 136 0 1 5
7.2 -9 1.8 140 0 1 5
7.2 -8.1 1.2 159 0 1 5
7.2 -7.2 0.5 157 0 1 5
7.2 -6.3 -0.1 152 0 1 5
7.2 -6.1 -0.2 119 0 1 5
7.2 -5.2 -0.5 135 0 1 1
7.2 -4.8 -0.7 136 0 1 4
7.2 -4.4 -0.9 133 0 1 4
7.2 -4 -1.1 115 0 1 4
7.2 2.5 0.1 128 0 1 5
7.2 2.9 0.3 118 0 1 5
7.2 3.4 0.6 127 0 1 5
7.3 -9.4 2 131 0 1 5
7.3 -9.2 2 127 0 1 5
7.3 -8.5 1.5 149 0 1 5
7.3 -8.3 1.4 159 0 1 5
7.3 -7.4 0.6 157 0 1 5
7.3 -6.5 0 161 0 1 5
7.3 -6.2 -0.2 151 0 1 5
7.3 -5.9 -0.3 111 0 1 1
7.3 -5.5 -0.4 125 0 1 1
7.3 -3.6 -1.1 108 0 1 4
7.3 -3.1 -1.1 116 0 1 4
7.3 -2.6 -1.1 112 0 1 4
7.3 -2.2 -1 109 0 1 4
7.3 -1.7 -0.9 109 0 1 4
7.3 -1.2 -0.7 106 0 1 4
7.3 -0.7 -0.5 122 0 1 4
7.3 3 0.4 120 0 1 5
7.4 -9.6 2.2 123 0 1 5
7.4 -8.7 1.7 145 0 1 5
7.4 -7.8 1 160 0 1 5
7.4 -7.6 0.8 158 0 1 5
7.4 -6.9 0.3 162 0 1 5
7.4 -6.7 0.1 164 0 1 5
7.4 -6 -0.3 124 0 1 5
7.4 -0.2 -0.4 126 0 1 1
7.4 0.3 -0.3 137 0 1 1
7.4 0.8 -0.1 137 0 1 1
7.4 1.2 0 148 0 1 1
7.4 2.7 0.1 112 0 1 5
7.4 3.5 0.7 130 0 1 5
7.5 -10 2.5 89 0 1 5
7.5 -9.8 2.4 127 0 1 5
7.5 -9.1 1.9 142 0 1 5
7.5 -8.9 1.8 145 0 1 5
7.5 -8 1.1 161 0 1 5
7.5 -7.1 0.4 156 0 1 5
7.5 -6.2 -0.2 158 0 1 5
7.5 -6.1 -0.2 152 0 1 5
7.5 1.7 0 151 0 1 1
7.5 2.2 0 156 0 1 1
7.5 2.8 0.2 105 0 1 5
7.5 3.2 0.5 125 0 1 5
7.5 3.7 0.8 122 0 1 5
7.6 -9.3 2 144 0 1 5
7.6 -8.4 1.5 153 0 1 5
7.6 -8.2 1.3 157 0 1 5
7.6 -7.5 0.7 158 0 1 5
7.6 -7.3 0.6 160 0 1 5
7.6 -6.4 0 160 0 1 5
7.6 -6.1 -0.2 136 0 1 5
7.6 -4.4 -0.9 133 0 1 4
7.6 2.4 0 153 0 1 5
7.6 3.3 0.6 118 0 1 5
7.7 -9.5 2.2 141 0 1 5
7.7 -8.6 1.6 146 0 1 5
7.7 -7.7 0.9 154 0 1 5
7.7 -6.8 0.2 157 0 1 5
7.7 -6.6 0.1 157 0 1 5
7.7 -5.9 -0.3 122 0 1 1
7.7 -5.5 -0.3 126 0 1 1
7.7 -5.1 -0.5 141 0 1 1
7.7 -4.8 -0.7 140 0 1 4
7.7 -4 -1 117 0 1 4
7.7 -3.6 -1 114 0 1 4
7.7 -3.1 -1 104 0 1 4
7.7 -2.6 -1 106 0 1 4
7.7 -2.1 -1 109 0 1 4
7.7 2.6 0.1 120 0 1 5
7.7 2.9 0.4 110 0 1 5
7.7 3.8 0.9 125 0 1 5
7.8 -9.9 2.3 135 0 1 5
7.8 -9.7 2.3 111 0 1 5
7.8 -9 1.8 140 0 1 5
7.8 -8.8 1.7 141 0 1 5
7.8 -8.1 1.2 148 0 1 5
7.8 -7.9 1 152 0 1 5
7.8 -7 0.4 153 0 1 5
7.8 -6.1 -0.2 160 0 1 5
7.8 -1.7 -0.9 122 0 1 4
7.8 -1.2 -0.7 132 0 1 4
7.8 -0.2 -0.5 123 0 1 1
7.8 0.3 -0.3 135 0 1 1
7.8 3.1 0.4 114 0 1 5
7.8 3.5 0.7 121 0 1 5
7.8 4 1 117 0 1 5
7.9 -9.2 2 146 0 1 5
7.9 -8.3 1.4 150 0 1 5
7.9 -7.4 0.7 155 0 1 5
7.9 -7.2 0.5 158 0 1 5
7.9 -6.5 0 160 0 1 5
7.9 -6.3 -0.1 157 0 1 5
7.9 -6.1 -0.2 153 0 1 5
7.9 0.8 -0.2 135 0 1 1
7.9 1.2 -0.1 141 0 1 1
7.9 2.7 0.2 108 0 1 5
7.9 3.6 0.7 122 0 1 5
8 -9.6 2.2 118 0 1 5
8 -9.4 2.1 147 0 1 5
8 -8.5 1.5 144 0 1 5
8 -7.6 0.8 149 0 1 5
8 -6.7 0.1 154 0 1 5
8 -6.2 -0.2 159 0 1 5
8 1.7 0 145 0 1 1
8 2.2 0 149 0 1 1
8 2.9 0.3 114 0 1 5
8 3.2 0.5 125 0 1 5
8.1 -8.9 1.7 143 0 1 5
8.1 -8.7 1.6 141 0 1 5
8.1 -8 1.1 155 0 1 5
8.1 -7.8 0.9 148 0 1 5
8.1 -7.1 0.4 145 0 1 5
8.1 -6.9 0.3 144 0 1 5
8.1 -6.1 -0.2 157 0 1 5
8.1 -6 -0.3 122 0 1 5
8.1 -5.9 -0.2 125 0 1 1
8.1 -5.5 -0.3 128 0 1 1
8.1 -5.1 -0.5 140 0 1 1
8.1 -4.7 -0.7 140 0 1 4
8.1 -4.4 -0.9 138 0 1 4
8.1 -4 -1 118 0 1 4
8.1 -3.5 -1 117 0 1 4
8.1 -3.1 -1 112 0 1 4
8.1 -2.6 -1 110 0 1 4
8.1 2.5 0 150 0 1 5
8.1 3.4 0.6 121 0 1 5
8.1 3.8 0.8 131 0 1 5
8.2 -9.1 1.9 144 0 1 5
8.2 -8.2 1.2 145 0 1 5
8.2 -7.3 0.6 144 0 1 5
8.2 -6.4 0 152 0 1 5
8.2 -6.2 -0.2 157 0 1 5
8.2 -2.1 -1 109 0 1 4
8.2 -1.7 -0.9 112 0 1 4
8.2 -1.2 -0.8 108 0 1 4
8.2 -0.8 -0.8 120 0 1 4
8.2 3 0.4 125 0 1 5
8.2 3.9 0.9 116 0 1 5
8.3 -9.3 2 135 0 1 5
8.3 -8.6 1.5 142 0 1 5
8.3 -8.4 1.4 145 0 1 5
8.3 -7.5 0.7 144 0 1 5
8.3 -6.6 0.1 142 0 1 5
8.3 -0.3 -0.6 117 0 1 4
8.3 0.3 -0.4 119 0 1 1
8.3 0.8 -0.2 132 0 1 1
8.3 2.7 0.1 126 0 1 5
8.3 3.2 0.4 130 0 1 5
8.3 3.5 0.7 129 0 1 5
8.4 -8.8 1.6 137 0 1 5
8.4 -7.9 0.9 150 0 1 5
8.4 -7.7 0.8 157 0 1 5
8.4 -7 0.4 153 0 1 5
8.4 -6.8 0.2 144 0 1 5
8.4 1.2 -0.1 136 0 1 1
8.4 1.7 0 150 0 1 1
8.4 2.2 0 155 0 1 1
8.4 2.8 0.2 123 0 1 5
8.4 3.7 0.8 128 0 1 5
8.4 4 1 120 0 1 5
8.5 -9.2 1.8 138 0 1 5
8.5 -9 1.8 84 0 1 5
8.5 -8.1 1.1 143 0 1 5
8.5 -7.2 0.5 145 0 1 5
8.5 -6.3 -0.1 156 0 1 5
8.5 -4.3 -0.8 140 0 1 4
8.5 -3.9 -1 124 0 1 4
8.5 3.3 0.5 129 0 1 5
8.5 4.2 1 122 0 1 5
8.6 -8.5 1.4 135 0 1 5
8.6 -8.3 1.2 136 0 1 5
8.6 -7.6 0.7 151 0 1 5
8.6 -7.4 0.6 149 0 1 5
8.6 -6.5 0 144 0 1 5
8.6 -5.8 -0.2 129 0 1 1
8.6 -5.5 -0.3 135 0 1 1
8.6 -5.1 -0.5 144 0 1 1
8.6 -4.7 -0.7 141 0 1 4
8.6 -3.5 -1 118 0 1 4
8.6 -3.1 -1 113 0 1 4
8.6 -2.6 -0.9 111 0 1 4
8.6 -2.1 -0.9 109 0 1 4
8.6 -1.7 -0.9 120 0 1 4
8.6 3 0.3 130 0 1 5
8.6 3.5 0.6 128 0 1 5
8.6 3.8 0.8 132 0 1 5
8.6 4.3 1.1 123 0 1 5
8.7 -8.7 1.5 140 0 1 5
8.7 -7.8 0.8 154 0 1 5
8.7 -6.9 0.2 145 0 1 5
8.7 -6.7 0.1 142 0 1 5
8.7 -1.2 -0.9 125 0 1 4
8.7 -0.8 -0.8 117 0 1 4
8.7 -0.3 -0.6 111 0 1 4
8.7 0.3 -0.4 112 0 1 1
8.7 3.1 0.3 127 0 1 5
8.7 4 0.9 131 0 1 5
8.8 -9.1 1.7 137 0 1 5
8.8 -8.9 1.6 136 0 1 5
8.8 -8.2 1.1 135 0 1 5
8.8 -8 0.9 146 0 1 5
8.8 -7.1 0.3 152 0 1 5
8.8 -6.2 -0.2 125 0 1 5
8.8 0.8 -0.2 134 0 1 1
8.8 1.3 -0.1 141 0 1 1
8.8 1.7 0 152 0 1 1
8.8 2.7 0.1 144 0 1 5
8.8 3.3 0.4 136 0 1 5
8.8 3.6 0.6 126 0 1 5
8.9 -8.4 1.2 136 0 1 5
8.9 -7.5 0.6 150 0 1 5
8.9 -7.3 0.5 148 0 1 5
8.9 -6.6 0 146 0 1 5
8.9 -6.4 -0.1 144 0 1 5
8.9 2.2 0.1 162 0 1 1
8.9 2.6 0.1 158 0 1 1
8.9 2.9 0.2 137 0 1 5
8.9 3.8 0.7 115 0 1 5
8.9 4.1 0.9 129 0 1 5
9 -8.6 1.4 107 0 1 5
9 -7.7 0.7 150 0 1 5
9 -6.8 0.1 149 0 1 5
9 -4.7 -0.7 141 0 1 4
9 -4.4 -0.8 139 0 1 4
9 -3.9 -1 122 0 1 4
9 -3.5 -1 121 0 1 4
9 3.4 0.4 130 0 1 5
9 4.3 1 118 0 1 5
9.1 -9 1.5 140 0 1 5
9.1 -8.8 1.5 130 0 1 5
9.1 -8.1 0.9 140 0 1 5
9.1 -7.9 0.8 146 0 1 5
9.1 -7.2 0.3 154 0 1 5
9.1 -7 0.2 157 0 1 5
9.1 -6.3 -0.2 128 0 1 1
9.1 -5.8 -0.2 135 0 1 1
9.1 -5.4 -0.3 143 0 1 1
9.1 -5.1 -0.4 144 0 1 1
9.1 -3.1 -1 123 0 1 4
9.1 -2.6 -0.9 119 0 1 4
9.1 -2.1 -0.9 116 0 1 4
9.1 -1.7 -0.9 113 0 1 4
9.1 -1.2 -0.8 112 0 1 4
9.1 -0.7 -0.8 115 0 1 4
9.1 3 0.2 139 0 1 5
9.1 3.5 0.5 120 0 1 5
9.1 3.9 0.7 123 0 1 5
9.2 -8.3 1.1 130 0 1 5
9.2 -7.4 0.5 153 0 1 5
9.2 -6.5 -0.1 142 0 1 5
9.2 -0.3 -0.6 115 0 1 4
9.2 0.3 -0.4 125 0 1 1
9.2 0.8 -0.2 131 0 1 1
9.2 3.2 0.3 136 0 1 5
9.2 4.1 0.8 134 0 1 5
9.2 4.4 1 92 0 1 5
9.3 -8.7 1.3 150 0 1 5
9.3 -8.5 1.2 134 0 1 5
9.3 -7.6 0.6 144 0 1 5
9.3 -6.7 0 152 0 1 5
9.3 1.3 0 139 0 1 1
9.3 1.7 0 148 0 1 1
9.3 2.2 0.1 163 0 1 1
9.3 2.6 0.1 167 0 1 1
9.3 3.7 0.5 151 0 1 5
9.4 -8.9 1.3 96 0 1 5
9.4 -8 0.7 144 0 1 5
9.4 -7.8 0.7 142 0 1 5
9.4 -7.1 0.2 148 0 1 5
9.4 -6.9 0.1 146 0 1 5
9.4 -4.3 -0.8 143 0 1 4
9.4 3.3 0.3 139 0 1 5
9.4 3.8 0.6 128 0 1 5
9.4 4.2 0.8 129 0 1 5
9.5 -8.2 0.9 133 0 1 5
9.5 -7.3 0.3 149 0 1 5
9.5 -5.4 -0.3 144 0 1 1
9.5 -5.1 -0.4 147 0 1 1
9.5 -4.7 -0.6 143 0 1 4
9.5 -3.9 -1 135 0 1 4
9.5 -3.5 -1 120 0 1 4
9.5 -3 -0.9 116 0 1 4
9.5 -2.6 -0.9 128 0 1 4
9.5 -2.1 -0.9 127 0 1 4
9.5 -1.7 -0.8 128 0 1 4
9.5 3.5 0.3 141 0 1 5
9.6 -8.6 1.1 141 0 1 5
9.6 -8.4 1 131 0 1 5
9.6 -7.7 0.5 147 0 1 5
9.6 -7.5 0.5 147 0 1 5
9.6 -6.6 -0.1 142 0 1 5
9.6 -6.3 -0.1 133 0 1 1
9.6 -5.8 -0.2 135 0 1 1
9.6 -1.2 -0.8 121 0 1 4
9.6 -0.8 -0.7 114 0 1 4
9.6 -0.3 -0.6 111 0 1 4
9.6 0.3 -0.3 127 0 1 1
9.7 -8.8 1.2 148 0 1 5
9.7 -7.9 0.6 143 0 1 5
9.7 -7 0.1 146 0 1 5
9.7 -6.8 0 142 0 1 5
9.7 0.8 -0.1 135 0 1 1
9.7 1.3 0 147 0 1 1
9.7 1.7 0.1 153 0 1 1
9.7 2.1 0.1 157 0 1 1
9.7 2.6 0.1 165 0 1 1
9.7 3.1 0.2 159 0 1 1
9.7 3.6 0.4 133 0 1 5
9.8 -8.3 0.8 135 0 1 5
9.8 -8.1 0.7 132 0 1 5
9.8 -7.2 0.2 148 0 1 5
9.9 -8.5 0.9 135 0 1 5
9.9 -7.6 0.4 144 0 1 5
9.9 -7.4 0.3 145 0 1 5
9.9 -6.7 -0.1 143 0 1 5
9.9 -4.7 -0.6 147 0 1 4
9.9 -4.3 -0.8 148 0 1 4
9.9 -3.9 -0.9 130 0 1 4
9.9 -3.5 -0.9 134 0 1 4
9.9 -3 -0.9 120 0 1 4
10 -8.7 1 159 0 1 5
10 -7.8 0.5 137 0 1 5
10 -6.9 0 144 0 1 5
10 -6.3 -0.1 132 0 1 1
10 -5.8 -0.1 134 0 1 1
10 -5.4 -0.2 136 0 1 1
10 -5.1 -0.4 147 0 1 1
10 -2.6 -0.9 124 0 1 4
10 -2.2 -0.8 118 0 1 4
10 -1.7 -0.8 131 0 1 4
10 -1.2 -0.8 121 0 1 4
10.1 -8.2 0.6 145 0 1 5
10.1 -8 0.5 133 0 1 5
10.1 -7.3 0.2 148 0 1 5
10.1 -7.1 0.1 146 0 1 5
10.1 -6.8 -0.1 131 0 1 5
10.1 -6.7 -0.1 130 0 1 1
10.1 -0.8 -0.7 118 0 1 4
10.1 -0.3 -0.5 113 0 1 4
10.1 0.2 -0.3 121 0 1 1
10.1 0.8 -0.1 137 0 1 1
10.2 -8.4 0.7 135 0 1 5
10.2 -7.5 0.2 145 0 1 5
10.2 1.3 0.1 147 0 1 1
10.2 1.7 0.2 159 0 1 1
10.2 2.1 0.2 159 0 1 1
10.2 2.6 0.2 161 0 1 1
10.2 3 0.2 160 0 1 1
10.2 3.5 0.2 161 0 1 1
10.3 -8.6 0.8 140 0 1 5
10.3 -7.7 0.3 149 0 1 5
10.4 -8.1 0.4 138 0 1 5
10.4 -7.2 0 150 0 1 5
10.4 -7 -0.1 154 0 1 5
10.4 -5.4 -0.2 137 0 1 1
10.4 -5.1 -0.3 147 0 1 1
10.4 -4.7 -0.5 146 0 1 4
10.4 -4.3 -0.6 135 0 1 4
10.4 -3.9 -0.7 114 0 1 4
10.4 -3.4 -0.7 116 0 1 4
10.4 -3 -0.8 128 0 1 4
10.4 -2.6 -0.8 121 0 1 4
10.5 -8.3 0.5 149 0 1 5
10.5 -7.4 0.1 152 0 1 5
10.5 -6.2 -0.1 126 0 1 1
10.5 -5.8 -0.1 136 0 1 1
10.5 -2.2 -0.8 120 0 1 4
10.5 -1.7 -0.7 127 0 1 4
10.5 -1.2 -0.7 119 0 1 4
10.5 -0.8 -0.7 119 0 1 4
10.5 -0.3 -0.5 111 0 1 4
10.6 -8.5 0.6 134 0 1 5
10.6 -7.8 0.2 146 0 1 5
10.6 -7.6 0.1 151 0 1 5
10.6 -7.1 -0.1 123 0 1 1
10.6 -6.7 -0.1 124 0 1 1
10.6 0.2 -0.3 115 0 1 1
10.6 0.7 -0.1 140 0 1 1
10.6 1.2 0.1 143 0 1 1
10.6 1.7 0.2 157 0 1 1
10.6 2.1 0.2 162 0 1 1
10.6 2.6 0.2 164 0 1 1
10.6 3 0.3 162 0 1 1
10.7 -8 0.3 144 0 1 5
10.7 3.5 0.3 166 0 1 1
10.7 3.9 0.3 156 0 1 1
10.8 -8.4 0.4 142 0 1 5
10.8 -8.2 0.3 152 0 1 5
10.8 -7.3 -0.1 120 0 1 5
10.8 -4.3 -0.4 122 0 1 4
10.8 -3.8 -0.5 115 0 1 4
10.9 -7.7 0 148 0 1 5
10.9 -7.5 0 138 0 1 5
10.9 -5.8 -0.1 134 0 1 1
10.9 -5.4 -0.1 141 0 1 1
10.9 -5 -0.2 141 0 1 1
10.9 -4.6 -0.3 132 0 1 4
10.9 -3.4 -0.5 121 0 1 4
10.9 -3 -0.6 124 0 1 4
10.9 -2.6 -0.6 123 0 1 4
10.9 -2.1 -0.6 121 0 1 4
10.9 -1.6 -0.6 118 0 1 4
10.9 -1.2 -0.6 118 0 1 4
11 -7.9 0.1 141 0 1 5
11 -7 0 121 0 1 1
11 -6.6 0 122 0 1 1
11 -6.2 0 123 0 1 1
11 -0.7 -0.5 112 0 1 4
11 -0.3 -0.4 107 0 1 1
11 0.3 -0.2 129 0 1 1
11 0.8 0 143 0 1 1
11 1.2 0.1 152 0 1 1
11.1 -8.3 0.2 142 0 1 5
11.1 -8.1 0.2 131 0 1 5
11.1 -7.4 0 121 0 1 1
11.1 1.7 0.2 160 0 1 1
11.1 2.1 0.2 161 0 1 1
11.1 2.6 0.2 163 0 1 1
11.1 3 0.3 165 0 1 1
11.1 3.4 0.3 164 0 1 1
11.1 3.9 0.3 157 0 1 1
11.1 4.3 0.3 153 0 1 1
11.3 -5 -0.1 152 0 1 1
11.3 -4.6 -0.2 157 0 1 1
11.3 -4.2 -0.3 124 0 1 1
11.3 -3.8 -0.3 130 0 1 4
11.3 -3.4 -0.3 128 0 1 4
11.3 -2.9 -0.4 120 0 1 4
11.3 -2.5 -0.4 118 0 1 4
11.4 -8 0 122 0 1 5
11.4 -6.2 0 119 0 1 1
11.4 -5.8 -0.1 123 0 1 1
11.4 -5.4 -0.1 147 0 1 1
11.4 -2.1 -0.4 120 0 1 4
11.4 -1.6 -0.3 122 0 1 4
11.4 -1.1 -0.3 117 0 1 4
11.4 -0.7 -0.3 118 0 1 4
11.4 -0.2 -0.2 129 0 1 1
11.5 -7.8 0 119 0 1 1
11.5 -7.4 0 128 0 1 1
11.5 -7 0 126 0 1 1
11.5 -6.6 0 120 0 1 1
11.5 0.3 0 134 0 1 1
11.5 0.8 0.1 145 0 1 1
11.5 1.2 0.2 149 0 1 1
11.5 1.7 0.2 156 0 1 1
11.5 2.1 0.2 160 0 1 1
11.5 2.6 0.3 162 0 1 1
11.5 3 0.3 164 0 1 1
11.5 3.5 0.3 164 0 1 1
11.6 -8.2 0 111 0 1 1
11.6 3.9 0.3 161 0 1 1
11.6 4.4 0.3 153 0 1 1
11.7 -4.6 -0.1 168 0 1 1
11.7 -4.2 -0.1 164 0 1 1
11.8 -5.8 0 135 0 1 1
11.8 -5.4 0 137 0 1 1
11.8 -5 -0.1 141 0 1 1
11.8 -3.7 -0.1 141 0 1 1
11.8 -3.3 -0.2 139 0 1 1
11.8 -2.9 -0.2 144 0 1 1
11.8 -2.4 -0.2 129 0 1 1
11.8 -2 -0.2 132 0 1 1
11.8 -1.5 -0.2 132 0 1 1
11.9 -7 0 131 0 1 1
11.9 -6.6 0 130 0 1 1
11.9 -6.2 0 127 0 1 1
11.9 -1.1 -0.1 135 0 1 1
11.9 -0.6 -0.1 125 0 1 1
11.9 -0.1 0 138 0 1 1
11.9 0.3 0.1 136 0 1 1
11.9 0.8 0.1 141 0 1 1
11.9 1.2 0.2 145 0 1 1
11.9 1.7 0.2 151 0 1 1
12 -8.6 0 109 0 1 1
12 -8.2 0 99 0 1 1
12 -7.8 0 104 0 1 1
12 -7.4 0 128 0 1 1
12 2.1 0.2 155 0 1 1
12 2.6 0.3 157 0 1 1
12 3 0.3 161 0 1 1
12 3.5 0.3 162 0 1 1
12 3.9 0.3 160 0 1 1
12 4.3 0.3 156 0 1 1
12 4.8 0.3 152 0 1 1
12.2 -5.4 -0.1 142 0 1 1
12.2 -5 -0.1 145 0 1 1
12.2 -4.6 -0.1 141 0 1 1
12.2 -4.2 -0.1 144 0 1 1
12.2 -3.7 -0.1 143 0 1 1
12.2 -3.3 -0.1 153 0 1 1
12.3 -6.2 0 124 0 1 1
12.3 -5.8 0 130 0 1 1
12.3 -2.8 -0.1 145 0 1 1
12.3 -2.4 -0.1 142 0 1 1
12.3 -1.9 0 139 0 1 1
12.3 -1.5 0 140 0 1 1
12.3 -1.1 0 148 0 1 1
12.4 -7.8 0 94 0 1 1
12.4 -7.4 0 110 0 1 1
12.4 -7 0 133 0 1 1
12.4 -6.6 0 132 0 1 1
12.4 -0.6 0 146 0 1 1
12.4 -0.1 0.1 148 0 1 1
12.4 0.4 0.1 143 0 1 1
12.4 0.8 0.2 140 0 1 1
12.4 1.2 0.2 139 0 1 1
12.4 1.7 0.2 142 0 1 1
12.4 2.1 0.2 143 0 1 1
12.4 2.6 0.2 150 0 1 1
12.4 3 0.3 152 0 1 1
12.4 3.4 0.3 158 0 1 1
12.4 5.2 0.2 152 0 1 1
12.5 -9.1 0 111 0 1 1
12.5 -8.7 0 108 0 1 1
12.5 -8.2 0 99 0 1 1
12.5 3.9 0.3 162 0 1 1
12.5 4.4 0.3 160 0 1 1
12.5 4.8 0.3 156 0 1 1
12.6 -4.2 -0.1 153 0 1 1
12.7 -5.8 0 130 0 1 1
12.7 -5.4 0 129 0 1 1
12.7 -5 -0.1 142 0 1 1
12.7 -4.6 -0.1 147 0 1 1
12.7 -3.7 -0.1 142 0 1 1
12.7 -3.3 0 136 0 1 1
12.7 -2.8 0 147 0 1 1
12.7 -2.3 0 151 0 1 1
12.7 -1.9 0 145 0 1 1
12.8 -6.7 0 119 0 1 1
12.8 -6.2 0 122 0 1 1
12.8 -1.5 0.1 146 0 1 1
12.8 -1 0.1 150 0 1 1
12.8 -0.6 0.1 156 0 1 1
12.8 -0.1 0.1 149 0 1 1
12.8 0.4 0.1 149 0 1 1
12.8 0.8 0.2 148 0 1 1
12.8 1.3 0.2 145 0 1 1
12.9 -9.1 0.1 107 0 1 1
12.9 -8.7 0.1 106 0 1 1
12.9 -8.3 0 106 0 1 1
12.9 -7.9 0 102 0 1 1
12.9 -7.4 0 98 0 1 1
12.9 -7 0 100 0 1 1
12.9 1.7 0.2 140 0 1 1
12.9 2.1 0.2 141 0 1 1
12.9 2.6 0.2 146 0 1 1
12.9 3 0.2 145 0 1 1
12.9 3.5 0.3 151 0 1 1
12.9 3.9 0.3 157 0 1 1
12.9 4.4 0.3 158 0 1 1
12.9 4.8 0.2 157 0 1 1
12.9 5.2 0.2 158 0 1 1
13 -10 0.1 107 0 1 1
13 -9.5 0.1 113 0 1 1
13.1 -5 0 124 0 1 1
13.1 -4.6 -0.1 121 0 1 1
13.1 -4.2 -0.1 127 0 1 1
13.1 -3.7 -0.1 133 0 1 1
13.1 -3.3 0 143 0 1 1
13.2 -6.3 0 109 0 1 1
13.2 -5.8 0 108 0 1 1
13.2 -5.4 0 106 0 1 1
13.2 -2.8 0 139 0 1 1
13.2 -2.3 0 141 0 1 1
13.2 -1.9 0 140 0 1 1
13.2 -1.5 0.1 143 0 1 1
13.3 -8.3 0 102 0 1 1
13.3 -7.9 0 106 0 1 1
13.3 -7.5 0 106 0 1 1
13.3 -7.1 0 106 0 1 1
13.3 -6.7 0 95 0 1 1
13.3 -1 0.1 141 0 1 1
13.3 -0.5 0.1 143 0 1 1
13.3 -0.1 0.1 150 0 1 1
13.3 0.4 0.1 149 0 1 1
13.3 0.8 0.1 151 0 1 1
13.3 1.2 0.1 149 0 1 1
13.3 1.7 0.2 147 0 1 1
13.3 2.1 0.2 150 0 1 1
13.3 5.2 0.2 161 0 1 1
13.3 5.7 0.2 158 0 1 1
13.4 -10.4 0.1 95 0 1 1
13.4 -10 0.1 97 0 1 1
13.4 -9.5 0.1 93 0 1 1
13.4 -9.1 0.1 107 0 1 1
13.4 -8.7 0.1 99 0 1 1
13.4 2.6 0.2 153 0 1 1
13.4 3 0.2 151 0 1 1
13.4 3.5 0.2 150 0 1 1
13.4 3.9 0.2 153 0 1 1
13.4 4.4 0.2 156 0 1 1
13.4 4.8 0.2 159 0 1 1
13.5 -4.2 0 125 0 1 1
13.6 -5.4 0 106 0 1 1
13.6 -5 0 104 0 1 1
13.6 -4.6 0 115 0 1 1
13.6 -4.1 0 35 0 1 3
13.6 -4 0 34 0 1 3
13.6 -3.9 0 111 0 1 3
13.6 -3.9 0.1 36 0 1 3
13.6 -3.8 0 83 0 1 3
13.6 -3.6 0.1 31 0 1 3
13.6 -3.5 0 90 0 1 3
13.6 -3.4 0.1 33 0 1 3
13.6 -3.3 0 59 0 1 1
13.6 -2.8 0 137 0 1 1
13.6 -2.4 0.1 143 0 1 1
13.7 -6.7 0 106 0 1 1
13.7 -6.3 0 103 0 1 1
13.7 -5.9 0 109 0 1 1
13.7 -4.1 0.1 33 0 1 3
13.7 -4.1 0.2 26 0 1 3
13.7 -4 0.1 30 0 1 3
13.7 -3.6 0.3 41 0 1 3
13.7 -3.5 0.2 40 0 1 3
13.7 -3.3 0.2 35 0 1 3
13.7 -3.1 0.1 34 0 1 3
13.7 -3 0 53 0 1 3
13.7 -1.9 0.1 141 0 1 1
13.7 -1.5 0.1 148 0 1 1
13.7 -1 0.1 144 0 1 1
13.7 -0.6 0.1 147 0 1 1
13.7 -0.1 0.1 154 0 1 1
13.8 -9.5 0.1 105 0 1 1
13.8 -9.1 0.1 102 0 1 1
13.8 -8.7 0 103 0 1 1
13.8 -8.3 0 111 0 1 1
13.8 -7.9 0 116 0 1 1
13.8 -7.5 0 108 0 1 1
13.8 -7.1 0 106 0 1 1
13.8 -4 0.4 43 0 1 3
13.8 -3.5 0.5 44 0 1 3
13.8 -3.1 0.3 30 0 1 3
13.8 -3.1 0.6 38 0 1 3
13.8 0.3 0.1 154 0 1 1
13.8 0.8 0.1 154 0 1 1
13.8 1.2 0.1 153 0 1 1
13.8 1.7 0.1 151 0 1 1
13.8 2.2 0.2 155 0 1 1
13.8 2.6 0.2 156 0 1 1
13.8 3 0.1 151 0 1 1
13.8 3.5 0.2 150 0 1 1
13.8 4 0.2 158 0 1 1
13.8 4.4 0.2 156 0 1 1
13.8 4.8 0.1 159 0 1 1
13.8 5.3 0.1 163 0 1 1
13.8 5.7 0.1 163 0 1 1
13.9 -11.2 0.2 172 0 1 1
13.9 -10.8 0.2 103 0 1 1
13.9 -10.4 0.1 107 0 1 1
13.9 -10 0.1 105 0 1 1
13.9 -4.3 0.1 59 0 1 3
13.9 -4.3 0.2 43 0 1 3
13.9 -4 0.7 62 0 1 3
13.9 -3.9 0.7 80 0 1 3
13.9 -3.9 0.8 61 0 1 3
13.9 -3.8 0.8 77 0 1 3
13.9 -3.6 0.7 42 0 1 3
13.9 -3.5 0.8 82 0 1 3
13.9 -3.2 0.8 94 0 1 3
13.9 -3.1 0.6 40 0 1 3
13.9 -2.9 0.3 32 0 1 3
13.9 -2.6 0.1 36 0 1 3
13.9 -2.5 0.1 36 0 1 3
14 -5.1 0 105 0 1 1
14 -4.6 0 111 0 1 1
14 -4.3 0.2 56 0 1 3
14 -4.2 0.5 35 0 1 3
14 -4 0.8 82 0 1 3
14 -3.8 0.8 107 0 1 3
14 -3.7 0.9 103 0 1 3
14 -3.5 0.9 91 0 1 3
14 -3.1 0.8 79 0 1 3
14 -3.1 0.9 101 0 1 3
14 -3 0.8 83 0 1 3
14 -2.4 0.1 31 0 1 3
14 -2.4 0.3 34 0 1 3
14 -2.3 0.1 76 0 1 3
14.1 -6.3 0 109 0 1 1
14.1 -5.9 0 109 0 1 1
14.1 -5.5 0 106 0 1 1
14.1 -4.2 0.7 59 0 1 3
14.1 -4.1 0.7 43 0 1 3
14.1 -3.6 0.9 111 0 1 3
14.1 -3.4 0.9 105 0 1 3
14.1 -3.3 1 109 0 1 3
14.1 -3.1 0.9 136 0 1 3
14.1 -3 0.9 77 0 1 3
14.1 -2.8 0.9 75 0 1 3
14.1 -2.7 0.7 51 0 1 3
14.1 -2.5 0.7 38 0 1 3
14.1 -2.4 0.4 96 0 1 3
14.1 -2.4 0.5 74 0 1 3
14.1 -2.4 0.6 62 0 1 3
14.1 -2.3 0 144 0 1 3
14.1 -2.3 0.2 99 0 1 3
14.1 -2.3 0.3 74 0 1 3
14.1 -1.9 0 142 0 1 1
14.1 -1.5 0 146 0 1 1
14.2 -7.9 0 114 0 1 1
14.2 -7.5 0 112 0 1 1
14.2 -7.1 0 108 0 1 1
14.2 -6.7 0 114 0 1 1
14.2 -4.5 0.2 54 0 1 3
14.2 -4.4 0.3 105 0 1 3
14.2 -4.4 0.5 56 0 1 3
14.2 -3.4 1 131 0 1 3
14.2 -3.1 1 138 0 1 3
14.2 -2.9 1 142 0 1 3
14.2 -2.8 1 148 0 1 3
14.2 -2.7 0.9 149 0 1 3
14.2 -2.6 0.9 93 0 1 3
14.2 -2.5 0.8 115 0 1 3
14.2 -1.1 0 147 0 1 1
14.2 -0.7 0.1 150 0 1 1
14.2 -0.2 0.1 154 0 1 1
14.2 0.3 0.1 155 0 1 1
14.2 0.8 0.1 158 0 1 1
14.2 1.2 0.1 158 0 1 1
14.2 1.7 0.1 157 0 1 1
14.2 5.7 0.1 165 0 1 1
14.2 6.1 0.1 156 0 1 1
14.3 -10.4 0.2 113 0 1 1
14.3 -10 0.1 109 0 1 1
14.3 -9.6 0.1 101 0 1 1
14.3 -9.2 0.1 106 0 1 1
14.3 -8.8 0.1 117 0 1 1
14.3 -8.3 0 115 0 1 1
14.3 -4.5 0 92 0 1 3
14.3 -4.5 0.1 84 0 1 3
14.3 -4.4 0.4 110 0 1 3
14.3 -4.4 0.6 58 0 1 3
14.3 -4.3 0.6 59 0 1 3
14.3 -3.5 1 119 0 1 3
14.3 -3.2 1 137 0 1 3
14.3 2.1 0.1 158 0 1 1
14.3 2.6 0.1 159 0 1 1
14.3 3 0.1 158 0 1 1
14.3 3.5 0.1 161 0 1 1
14.3 4 0.2 163 0 1 1
14.3 4.4 0.1 157 0 1 1
14.3 4.9 0.1 163 0 1 1
14.3 5.3 0.1 162 0 1 1
14.4 -11.7 0.2 116 0 1 1
14.4 -11.2 0.2 121 0 1 1
14.4 -10.8 0.2 117 0 1 1
14.4 -4.1 0.7 80 0 1 3
14.4 -2.4 0.8 102 0 1 3
14.5 -5.1 0 112 0 1 1
14.5 -4.7 0 112 0 1 1
14.5 -3.7 0.9 110 0 1 3
14.5 -2.6 0.9 151 0 1 3
14.5 -2.3 0.4 103 0 1 3
14.6 -6.7 0 107 0 1 1
14.6 -6.3 0 110 0 1 1
14.6 -5.9 0 110 0 1 1
14.6 -5.5 0 111 0 1 1
14.6 -4.2 0.7 68 0 1 3
14.6 -3.2 1 146 0 1 3
14.6 -2.9 1 157 0 1 3
14.6 -1.9 0 145 0 1 1
14.6 -1.5 0 147 0 1 1
14.6 -1.1 0 148 0 1 1
14.6 -0.2 0 155 0 1 1
14.7 -9.6 0.1 126 0 1 1
14.7 -9.2 0.1 131 0 1 1
14.7 -8.8 0.1 147 0 1 1
14.7 -8.4 0.1 139 0 1 1
14.7 -7.9 0.1 108 0 1 1
14.7 -7.5 0.1 102 0 1 1
14.7 -7.1 0 104 0 1 1
14.7 -2.4 0.8 138 0 1 3
14.7 -2.2 0.3 101 0 1 3
14.7 -0.6 0 152 0 1 1
14.7 0.3 0 156 0 1 1
14.7 0.8 0.1 159 0 1 1
14.7 1.2 0.1 158 0 1 1
14.7 1.7 0.1 158 0 1 1
14.7 2.1 0.1 159 0 1 1
14.7 4.8 0.1 161 0 1 1
14.7 5.3 0.1 161 0 1 1
14.7 5.7 0.1 166 0 1 1
14.7 6.1 0 166 0 1 1
14.8 -12.1 0.2 107 0 1 1
14.8 -11.7 0.2 113 0 1 1
14.8 -11.3 0.2 116 0 1 1
14.8 -10.9 0.2 120 0 1 1
14.8 -10.4 0.2 102 0 1 1
14.8 -10 0.2 123 0 1 1
14.8 -3.6 1 107 0 1 3
14.8 -2.6 0.9 157 0 1 3
14.8 -2.4 0.7 127 0 1 3
14.8 -2.2 0.3 94 0 1 3
14.8 2.6 0.1 159 0 1 1
14.8 3 0.1 159 0 1 1
14.8 3.5 0.1 143 0 1 1
14.8 4 0.1 157 0 1 1
14.8 4.4 0.1 164 0 1 1
14.9 -3.2 1 133 0 1 3
14.9 -2.9 1 140 0 1 3
14.9 -2.4 0.7 115 0 1 3
14.9 -2.2 0.3 47 0 1 3
15 -5.5 0 123 0 1 1
15 -5.1 0 115 0 1 1
15 -3 1 113 0 1 3
15 -2.6 0.9 155 0 1 3
15 -2.3 0.7 111 0 1 3
15 -2.2 0.5 120 0 1 3
15 -2.2 0.6 88 0 1 3
15 -2.1 0.1 39 0 1 3
15 -1.9 0 144 0 1 1
15.1 -8.8 0.1 137 0 1 1
15.1 -8.4 0.1 150 0 1 1
15.1 -7.9 0.1 140 0 1 1
15.1 -7.5 0.1 148 0 1 1
15.1 -7.1 0.1 122 0 1 1
15.1 -6.7 0.1 121 0 1 1
15.1 -6.3 0 125 0 1 1
15.1 -5.9 0 124 0 1 1
15.1 -4 0.8 106 0 1 3
15.1 -3.6 1 115 0 1 3
15.1 -3.3 1 133 0 1 3
15.1 -2.1 0.4 84 0 1 3
15.1 -2 0.2 87 0 1 3
15.1 -1.5 0 148 0 1 1
15.1 -1.1 0 152 0 1 1
15.1 -0.6 0 155 0 1 1
15.1 -0.2 0 153 0 1 1
15.1 0.8 0 156 0 1 1
15.1 1.2 0 157 0 1 1
15.1 5.7 0 163 0 1 1
15.1 6.1 0 167 0 1 1
15.1 6.5 0 163 0 1 1
15.2 -10.4 0.2 137 0 1 1
15.2 -10 0.2 138 0 1 1
15.2 -9.6 0.2 137 0 1 1
15.2 -9.2 0.1 138 0 1 1
15.2 -3.3 1 94 0 1 3
15.2 -3.1 1 100 0 1 3
15.2 -2.5 0.8 101 0 1 3
15.2 -2.1 0.4 122 0 1 3
15.2 1.7 0 155 0 1 1
15.2 2.1 0.1 161 0 1 1
15.2 2.6 0.1 164 0 1 1
15.2 3 0.1 160 0 1 1
15.2 3.5 0.1 155 0 1 1
15.2 4 0.1 165 0 1 1
15.2 4.4 0.1 162 0 1 1
15.2 4.8 0.1 165 0 1 1
15.2 5.3 0.1 163 0 1 1
15.3 -12.6 0.3 103 0 1 1
15.3 -12.2 0.2 103 0 1 1
15.3 -11.7 0.2 99 0 1 1
15.3 -11.3 0.2 95 0 1 1
15.3 -10.9 0.2 119 0 1 1
15.3 -3.8 0.9 115 0 1 3
15.3 -2.9 0.9 104 0 1 3
15.3 -2.7 0.8 147 0 1 3
15.4 -12.6 0.2 100 0 1 1
15.5 -7.5 0.1 147 0 1 1
15.5 -7.1 0.1 154 0 1 1
15.5 -6.7 0.1 133 0 1 1
15.5 -6.3 0 135 0 1 1
15.5 -5.9 0 129 0 1 1
15.5 -5.5 0 128 0 1 1
15.5 -5 0 119 0 1 1
15.5 -1.9 0 143 0 1 1
15.6 -9.6 0.2 155 0 1 1
15.6 -9.2 0.2 163 0 1 1
15.6 -8.8 0.1 159 0 1 1
15.6 -8.4 0.1 159 0 1 1
15.6 -7.9 0.1 146 0 1 1
15.6 -1.5 0 145 0 1 1
15.6 -1.1 0 143 0 1 1
15.6 -0.6 0 146 0 1 1
15.6 -0.2 0 152 0 1 1
15.6 0.3 0 155 0 1 1
15.6 0.8 0 153 0 1 1
15.6 1.2 0 155 0 1 1
15.6 1.7 0 159 0 1 1
15.6 2.6 0 169 0 1 1
15.6 4.8 0 165 0 1 1
15.6 5.2 0 161 0 1 1
15.6 5.6 0 161 0 1 1
15.6 6.1 0 166 0 1 1
15.6 6.5 -0.1 161 0 1 1
15.7 -10.4 0.2 128 0 1 1
15.7 -10 0.2 152 0 1 1
15.7 2.1 0 159 0 1 1
15.7 3 0.1 159 0 1 1
15.7 3.5 0 166 0 1 1
15.7 4 0.1 169 0 1 1
15.7 4.4 0 163 0 1 1
15.8 -12.2 0.2 84 0 1 1
15.8 -11.7 0.2 117 0 1 1
15.8 -11.3 0.2 130 0 1 1
15.8 -10.9 0.2 122 0 1 1
15.9 -5.5 0 132 0 1 1
15.9 -5.1 0 124 0 1 1
16 -8.4 0.1 166 0 1 1
16 -7.9 0.1 170 0 1 1
16 -7.5 0.1 166 0 1 1
16 -7.1 0.1 146 0 1 1
16 -6.7 0.1 148 0 1 1
16 -6.3 0 138 0 1 1
16 -5.9 0 137 0 1 1
16 -2 0 137 0 1 1
16 -1.5 0 140 0 1 1
16 -1.1 0 141 0 1 1
16 -0.7 0 144 0 1 1
16 -0.2 0 149 0 1 1
16 0.3 0 151 0 1 1
16 0.8 0 152 0 1 1
16 1.2 0 158 0 1 1
16 1.7 0 159 0 1 1
16 6.5 0 151 0 1 1
16 7 -0.1 147 0 1 1
16.1 -11.7 0.2 89 0 1 1
16.1 -10.5 0.2 148 0 1 1
16.1 -10 0.2 153 0 1 1
16.1 -9.6 0.2 158 0 1 1
16.1 -9.2 0.1 167 0 1 1
16.1 -8.8 0.1 170 0 1 1
16.1 2.1 0 159 0 1 1
16.1 2.6 0 171 0 1 1
16.1 3 0.1 159 0 1 1
16.1 3.5 0 153 0 1 1
16.1 4 0 158 0 1 1
16.1 4.4 0 153 0 1 1
16.1 4.8 0 151 0 1 1
16.1 5.2 0 159 0 1 1
16.1 5.7 0 153 0 1 1
16.1 6.1 0 160 0 1 1
16.2 -11.3 0.2 105 0 1 1
16.2 -10.9 0.2 136 0 1 1
16.4 -11.3 0.2 123 0 1 1
16.4 -6.7 0.1 159 0 1 1
16.4 -6.3 0 144 0 1 1
16.4 -5.9 0.1 139 0 1 1
16.4 -5.5 0 130 0 1 1
16.4 -2 0 134 0 1 1
16.4 -1.5 0 142 0 1 1
16.5 -9.6 0.2 165 0 1 1
16.5 -9.2 0.1 174 0 1 1
16.5 -8.8 0.1 176 0 1 1
16.5 -8.4 0.1 173 0 1 1
16.5 -8 0.1 174 0 1 1
16.5 -7.5 0.1 172 0 1 1
16.5 -7.1 0.1 171 0 1 1
16.5 -1.1 0 145 0 1 1
16.5 -0.6 0 149 0 1 1
16.5 -0.2 0 149 0 1 1
16.5 0.3 0 151 0 1 1
16.5 0.8 0 154 0 1 1
16.5 1.3 0 160 0 1 1
16.5 1.7 0 157 0 1 1
16.5 2.2 0 159 0 1 1
16.5 2.6 0.1 178 0 1 1
16.5 3.1 0 183 0 1 1
16.5 4.9 0 151 0 1 1
16.5 5.7 0 158 0 1 1
16.5 6.1 0 161 0 1 1
16.5 6.6 0 157 0 1 1
16.5 7 -0.1 150 0 1 1
16.5 7.4 -0.1 147 0 1 1
16.6 -11.2 0.2 128 0 1 1
16.6 -11.1 0.2 129 0 1 1
16.6 -10.9 0.2 133 0 1 1
16.6 -10.5 0.2 143 0 1 1
16.6 -10 0.2 154 0 1 1
16.6 3.6 0 154 0 1 1
16.6 4 0 170 0 1 1
16.6 4.5 0 141 0 1 1
16.6 5.3 0 145 0 1 1
16.9 -10.5 0.2 119 0 1 1
16.9 -8 0.1 171 0 1 1
16.9 -7.5 0.1 167 0 1 1
16.9 -7.1 0.1 171 0 1 1
16.9 -6.7 0.1 172 0 1 1
16.9 -6.3 0.1 166 0 1 1
16.9 -5.9 0.1 143 0 1 1
16.9 -5.5 0.1 147 0 1 1
16.9 -2 0 134 0 1 1
16.9 -1.5 0 137 0 1 1
16.9 -1.1 0 146 0 1 1
16.9 -0.6 0 149 0 1 1
16.9 -0.2 0 151 0 1 1
16.9 2.2 0.1 170 0 1 1
16.9 6.6 0 159 0 1 1
16.9 7 0 135 0 1 1
16.9 7.4 -0.1 148 0 1 1
17 -10.3 0.2 117 0 1 1
17 -10.1 0.2 150 0 1 1
17 -9.6 0.2 160 0 1 1
17 -9.2 0.1 161 0 1 1
17 -8.8 0.2 151 0 1 1
17 -8.4 0.2 158 0 1 1
17 0.3 0 153 0 1 1
17 0.8 0 165 0 1 1
17 1.2 0 164 0 1 1
17 1.7 0 167 0 1 1
17 2.6 0.1 173 0 1 1
17 3.1 0.1 173 0 1 1
17 3.6 0.1 165 0 1 1
17 4.1 0 166 0 1 1
17 4.5 0 164 0 1 1
17 4.9 0 155 0 1 1
17 5.3 0 154 0 1 1
17 5.7 0 153 0 1 1
17 6.1 0 152 0 1 1
17.2 -10.1 0.2 147 0 1 1
17.3 -6.3 0.1 163 0 1 1
17.3 -5.9 0.1 148 0 1 1
17.3 -5.5 0.1 154 0 1 1
17.3 -2 0 122 0 1 1
17.3 -1.5 0 133 0 1 1
17.3 -1.1 0 143 0 1 1
17.3 -0.6 0 148 0 1 1
17.3 -0.2 0 150 0 1 1
17.4 -9.7 0.2 104 0 1 1
17.4 -9.6 0.2 103 0 1 1
17.4 -9.2 0.1 144 0 1 1
17.4 -8.8 0.1 147 0 1 1
17.4 -8.4 0.2 147 0 1 1
17.4 -8 0.2 153 0 1 1
17.4 -7.5 0.1 155 0 1 1
17.4 -7.1 0.1 161 0 1 1
17.4 -6.7 0.1 166 0 1 1
17.4 0.3 0.1 155 0 1 1
17.4 0.7 0.1 156 0 1 1
17.4 1.2 0 170 0 1 1
17.4 1.7 0 179 0 1 1
17.4 2.2 0 173 0 1 1
17.4 2.6 0.1 176 0 1 1
17.4 4.5 0 157 0 1 1
17.4 4.9 0 159 0 1 1
17.4 5.3 0 154 0 1 1
17.4 5.7 0 157 0 1 1
17.4 6.2 0 149 0 1 1
17.4 6.6 0 138 0 1 1
17.4 7 0 147 0 1 1
17.4 7.4 0 167 0 1 1
17.4 7.8 0 163 0 1 1
17.5 3.1 0 169 0 1 1
17.5 3.6 0 163 0 1 1
17.5 4.1 0 161 0 1 1
17.6 -9.2 0.2 125 0 1 1
17.7 -1.5 0 130 0 1 1
17.8 -8.8 0.2 88 0 1 1
17.8 -8.4 0.2 142 0 1 1
17.8 -8 0.2 147 0 1 1
17.8 -7.6 0.2 147 0 1 1
17.8 -7.1 0.1 155 0 1 1
17.8 -6.7 0.1 158 0 1 1
17.8 -6.4 0.1 153 0 1 1
17.8 -6 0.1 141 0 1 1
17.8 -5.5 0.1 152 0 1 1
17.8 -2 0 123 0 1 1
17.8 -1.1 0 137 0 1 1
17.8 -0.6 0 143 0 1 1
17.8 -0.2 0.1 149 0 1 1
17.8 0.3 0.1 151 0 1 1
17.8 7 0 141 0 1 1
17.8 7.4 0 145 0 1 1
17.8 7.8 -0.1 149 0 1 1
17.8 8.3 -0.1 156 0 1 1
17.9 0.8 0.1 155 0 1 1
17.9 1.2 0.1 162 0 1 1
17.9 1.7 0.1 160 0 1 1
17.9 2.2 0 164 0 1 1
17.9 2.6 0 162 0 1 1
17.9 3.1 0 165 0 1 1
17.9 3.6 0 162 0 1 1
17.9 4 0 166 0 1 1
17.9 4.5 0 159 0 1 1
17.9 4.9 0 157 0 1 1
17.9 5.3 0 152 0 1 1
17.9 5.7 0 147 0 1 1
17.9 6.2 0 146 0 1 1
17.9 6.6 0 139 0 1 1
18.1 -8.4 0.2 133 0 1 1
18.1 8.3 -0.1 140 0 1 1
18.2 -8.1 0.2 111 0 1 1
18.2 -8 0.2 117 0 1 1
18.2 -7.6 0.2 144 0 1 1
18.2 -7.2 0.2 152 0 1 1
18.2 -6.8 0.2 155 0 1 1
18.2 -6.4 0.1 145 0 1 1
18.2 -6 0.1 136 0 1 1
18.2 -5.6 0.1 119 0 1 1
18.2 -1.1 0 137 0 1 1
18.2 -0.6 0.1 144 0 1 1
18.3 -8 0.2 118 0 1 1
18.3 -2 0 130 0 1 1
18.3 -1.5 0 134 0 1 1
18.3 -0.2 0.1 149 0 1 1
18.3 0.3 0.1 154 0 1 1
18.3 1.2 0 158 0 1 1
18.3 1.7 0 162 0 1 1
18.3 2.2 0 168 0 1 1
18.3 5.3 -0.1 151 0 1 1
18.3 5.7 -0.1 142 0 1 1
18.3 6.2 0 144 0 1 1
18.3 6.6 0 143 0 1 1
18.3 7 0 146 0 1 1
18.3 7.4 0 144 0 1 1
18.3 7.9 0 113 0 1 1
18.4 -7.7 0.2 131 0 1 1
18.4 2.7 0 167 0 1 1
18.4 3.1 0 170 0 1 1
18.4 3.6 0 163 0 1 1
18.4 4 0 155 0 1 1
18.4 4.5 0 157 0 1 1
18.4 4.9 0 153 0 1 1
18.4 7.6 0 128 0 1 1
18.5 -7.6 0.2 129 0 1 1
18.5 7.4 0 128 0 1 1
18.6 -7.2 0.2 129 0 1 1
18.6 -6 0.1 160 0 1 1
18.6 7 0 88 0 1 1
18.7 -6.9 0.2 128 0 1 1
18.7 -6.8 0.2 128 0 1 1
18.7 -6.4 0.2 146 0 1 1
18.7 -2.5 0.1 130 0 1 1
18.7 -2 0 131 0 1 1
18.7 -1.5 0 131 0 1 1
18.7 -1 0 133 0 1 1
18.7 -0.6 0.1 147 0 1 1
18.7 -0.1 0.1 153 0 1 1
18.7 0.8 0 153 0 1 1
18.7 6.6 0 136 0 1 1
18.8 -6.4 0.2 107 0 1 1
18.8 1.3 0 157 0 1 1
18.8 1.7 0.1 162 0 1 1
18.8 2.2 0 166 0 1 1
18.8 2.6 0 166 0 1 1
18.8 5.3 -0.1 138 0 1 1
18.8 5.7 -0.1 136 0 1 1
18.8 6.2 0 147 0 1 1
18.8 6.3 0 136 0 1 1
18.9 3.1 0 175 0 1 1
18.9 3.6 0 160 0 1 1
18.9 4 0 158 0 1 1
18.9 4.5 0 150 0 1 1
18.9 4.9 0 148 0 1 1
19 -6 0.2 151 0 1 1
19 5.7 -0.1 119 0 1 1
19.1 -2.5 0.1 130 0 1 1
19.1 -2 0.1 132 0 1 1
19.1 -1.5 0.1 139 0 1 1
19.1 -1 0 140 0 1 1
19.1 -0.6 0 148 0 1 1
19.1 5.3 0 122 0 1 1
19.2 -0.1 0.1 152 0 1 1
19.2 0.3 0 154 0 1 1
19.2 0.8 0.1 155 0 1 1
19.2 1.2 0 157 0 1 1
19.2 1.7 0 163 0 1 1
19.2 4.9 0 79 0 1 1
19.3 2.2 0.1 162 0 1 1
19.3 2.7 0.1 157 0 1 1
19.4 3.1 0 172 0 1 1
19.4 3.6 0 157 0 1 1
19.4 4 0 158 0 1 1
19.4 4.5 0 130 0 1 1
19.5 4 0 105 0 1 1
19.6 -2.5 0.1 132 0 1 1
19.6 -2 0.1 128 0 1 1
19.6 -1.5 0.1 138 0 1 1
19.6 -1 0.1 134 0 1 1
19.6 -0.6 0.1 148 0 1 1
19.6 -0.1 0.1 152 0 1 1
19.6 0.3 0.1 154 0 1 1
19.6 3.1 0 174 0 1 1
19.6 3.6 0 94 0 1 1
19.6 3.9 0 108 0 1 1
19.7 -2.5 0.1 126 0 1 1
19.7 0.8 0.1 153 0 1 1
19.7 1.7 0 150 0 1 1
19.7 2.2 0 104 0 1 1
19.7 2.3 0 163 0 1 1
19.7 2.6 0 98 0 1 1
19.8 1.3 0 143 0 1 1
19.9 -1 0.1 128 0 1 1
19.9 -0.6 0.1 100 0 1 1
19.9 -0.1 0.1 132 0 1 1
19.9 0.4 0.1 148 0 1 1
19.9 0.8 0.1 137 0 1 1
20 0 0.1 115 0 1 1
