-8.9 17.8 0 130 0 1 1
-8.8 17.3 0 131 0 1 1
-8.8 17.8 -0.1 143 0 1 1
-8.8 17.9 0 134 0 1 1
-8.5 16.4 0 118 0 1 1
-8.4 16.9 0 124 0 1 1
-8.4 17.3 0 130 0 1 1
-8.3 17.8 0 147 0 1 1
-8.3 18.1 0 120 0 1 1
-8.1 18.2 0 107 0 1 1
-8 15.5 -0.1 133 0 1 1
-8 16 0 131 0 1 1
-8 16.4 0 120 0 1 1
-8 16.9 0 133 0 1 1
-7.9 17.3 0 144 0 1 1
-7.9 17.8 0 137 0 1 1
-7.9 18.2 0 136 0 1 1
-7.9 18.3 0 102 0 1 1
-7.7 18.4 0 107 0 1 1
-7.6 14.6 -0.1 125 0 1 1
-7.6 15.1 -0.1 130 0 1 1
-7.6 15.5 -0.1 137 0 1 1
-7.5 16 0 144 0 1 1
-7.5 16.4 0 143 0 1 1
-7.5 16.9 0 142 0 1 1
-7.5 17.3 0 144 0 1 1
-7.5 17.8 0 145 0 1 1
-7.5 18.2 0 145 0 1 1
-7.5 18.5 0 97 0 1 1
-7.1 13.7 -0.1 119 0 1 1
-7.1 14.1 -0.1 130 0 1 1
-7.1 14.6 -0.1 121 0 1 1
-7.1 15 -0.1 118 0 1 1
-7.1 15.5 0 119 0 1 1
-7.1 16 0 129 0 1 1
-7.1 16.4 0 130 0 1 1
-7.1 16.9 0 132 0 1 1
-7.1 17.3 0 134 0 1 1
-7.1 17.8 0 141 0 1 1
-7.1 18.2 0 136 0 1 1
-7 18.6 0 100 0 1 1
-6.7 12.8 -0.1 114 0 1 1
-6.7 13.7 -0.1 123 0 1 1
-6.7 14.1 -0.1 127 0 1 1
-6.7 14.6 -0.1 129 0 1 1
-6.7 15 0 119 0 1 1
-6.7 15.5 0 115 0 1 1
-6.7 16 0 118 0 1 1
-6.7 16.4 0 129 0 1 1
-6.7 16.9 0 129 0 1 1
-6.7 17.3 0 130 0 1 1
-6.6 13.3 -0.1 117 0 1 1
-6.6 17.8 0 130 0 1 1
-6.6 18.2 0 137 0 1 1
-6.6 18.6 0 142 0 1 1
-6.6 18.8 0 140 0 1 1
-6.3 13.7 -0.1 94 0 1 1
-6.3 14.1 -0.1 109 0 1 1
-6.3 14.6 -0.1 114 0 1 1
-6.3 15 -0.1 114 0 1 1
-6.3 15.5 -0.1 121 0 1 1
-6.3 15.9 0 122 0 1 1
-6.3 16.4 0 115 0 1 1
-6.3 16.8 0 119 0 1 1
-6.3 17.3 0 126 0 1 1
-6.2 12.8 0 121 0 1 1
-6.2 13.3 -0.1 107 0 1 1
-6.2 17.7 0 123 0 1 1
-6.2 18.2 0 127 0 1 1
-6.2 18.6 0 130 0 1 1
-6.2 18.9 0 90 0 1 1
-5.9 14.6 -0.1 109 0 1 1
-5.9 15 -0.1 99 0 1 1
-5.9 15.5 -0.1 118 0 1 1
-5.9 15.9 0 108 0 1 1
-5.9 16.3 0 122 0 1 1
-5.8 16.8 -0.1 119 0 1 1
-5.8 17.3 -0.1 123 0 1 1
-5.8 17.7 0 112 0 1 1
-5.8 18.2 0 103 0 1 1
-5.8 18.6 0 116 0 1 1
-5.8 19 0 114 0 1 1
-5.6 19.1 0 94 0 1 1
-5.4 14.1 0 110 0 1 1
-5.4 14.6 0 109 0 1 1
-5.4 15 0 106 0 1 1
-5.4 15.4 0 121 0 1 1
-5.4 15.9 0 122 0 1 1
-5.4 16.3 0 122 0 1 1
-5.4 16.8 0 111 0 1 1
-5.4 17.3 0 113 0 1 1
-5.4 17.7 -0.1 116 0 1 1
-5.3 18.2 0 111 0 1 1
-5.3 18.6 0 105 0 1 1
-5.3 19.1 0 112 0 1 1
-5 15 0 118 0 1 1
-5 15.4 0 115 0 1 1
-5 15.9 0 113 0 1 1
-5 16.3 0 118 0 1 1
-4.9 14.1 0 109 0 1 1
-4.9 14.6 0 101 0 1 1
-4.9 16.8 0 122 0 1 1
-4.9 17.2 0 120 0 1 1
-4.9 17.7 0 118 0 1 1
-4.9 18.1 0 112 0 1 1
-4.9 18.6 0 112 0 1 1
-4.9 19 -0.1 114 0 1 1
-4.9 19.3 -0.1 98 0 1 1
-4.6 15.4 0 117 0 1 1
-4.5 13.7 0 121 0 1 1
-4.5 14.1 0 122 0 1 1
-4.5 14.6 0 110 0 1 1
-4.5 15 0 114 0 1 1
-4.5 15.9 0 121 0 1 1
-4.5 16.3 0 118 0 1 1
-4.5 16.8 0 119 0 1 1
-4.5 17.2 0 116 0 1 1
-4.5 17.7 0 108 0 1 1
-4.5 18.1 0 108 0 1 1
-4.5 18.6 0 109 0 1 1
-4.5 19 0 115 0 1 1
-4.4 19.4 0 104 0 1 1
-4.2 19.5 0 105 0 1 1
-4.1 13.2 -0.1 135 0 1 1
-4.1 13.6 -0.1 129 0 1 1
-4.1 14.1 -0.1 131 0 1 1
-4.1 14.5 -0.1 131 0 1 1
-4.1 15 0 126 0 1 1
-4.1 15.4 0 123 0 1 1
-4.1 15.9 0 119 0 1 1
-4.1 16.3 0 117 0 1 1
-4.1 16.8 0 111 0 1 1
-4.1 17.2 0 111 0 1 1
-4 17.7 0 111 0 1 1
-4 18.1 0 117 0 1 1
-4 18.6 0 112 0 1 1
-4 19.1 0 116 0 1 1
-4 19.5 0 108 0 1 1
-4 19.6 0 116 0 1 1
-3.7 14.5 -0.1 97 0 1 1
-3.7 15 0 115 0 1 1
-3.7 15.4 -0.1 130 0 1 1
-3.7 16.3 -0.1 139 0 1 1
-3.7 16.8 -0.1 126 0 1 1
-3.6 6.8 0.3 103 0 1 3
-3.6 7 0.7 84 0 1 3
-3.6 7.1 0.8 110 0 1 3
-3.6 7.4 0.8 116 0 1 3
-3.6 12.3 0 132 0 1 1
-3.6 12.7 0 132 0 1 1
-3.6 13.2 -0.1 116 0 1 1
-3.6 13.6 -0.1 107 0 1 1
-3.6 14.1 -0.1 91 0 1 1
-3.6 15.9 -0.1 132 0 1 1
-3.6 17.2 -0.1 112 0 1 1
-3.6 17.7 0 109 0 1 1
-3.6 18.1 0 108 0 1 1
-3.6 18.6 0 122 0 1 1
-3.6 19 0 129 0 1 1
-3.6 19.5 -0.1 129 0 1 1
-3.6 19.6 -0.1 92 0 1 1
-3.5 7.6 0.8 120 0 1 3
-3.5 7.7 0.8 112 0 1 3
-3.4 6.5 0.2 134 0 1 3
-3.4 8 0.8 118 0 1 3
-3.3 6.4 -0.1 49 0 1 3
-3.3 6.4 0.2 96 0 1 3
-3.3 6.9 0.7 101 0 1 3
-3.3 7.2 0.8 114 0 1 3
-3.3 8.1 0.8 114 0 1 3
-3.2 6.9 0.5 78 0 1 3
-3.2 7.4 0.8 98 0 1 3
-3.2 7.7 0.8 129 0 1 3
-3.2 11.9 0 130 0 1 1
-3.2 12.3 0 134 0 1 1
-3.2 12.7 0 107 0 1 1
-3.2 13.2 -0.1 111 0 1 1
-3.2 13.6 -0.1 112 0 1 1
-3.2 14.1 -0.1 102 0 1 1
-3.2 14.5 0 85 0 1 1
-3.2 15 -0.1 67 0 1 1
-3.2 15.5 -0.1 79 0 1 1
-3.2 15.9 -0.1 112 0 1 1
-3.2 16.3 -0.1 116 0 1 1
-3.2 16.7 -0.1 112 0 1 1
-3.1 6.7 0.3 137 0 1 3
-3.1 6.8 0.3 86 0 1 3
-3.1 7.1 0.8 117 0 1 3
-3.1 8 0.8 116 0 1 3
-3.1 11 -0.1 125 0 1 1
-3.1 11.4 0 124 0 1 1
-3.1 17.2 -0.1 110 0 1 1
-3.1 17.6 -0.1 107 0 1 1
-3.1 18.1 -0.1 111 0 1 1
-3.1 18.6 -0.1 106 0 1 1
-3.1 19 -0.1 105 0 1 1
-3.1 19.5 -0.1 115 0 1 1
-3.1 19.6 -0.1 110 0 1 1
-3 5.9 -0.2 132 0 1 1
-3 6.3 -0.2 129 0 1 1
-3 6.5 0.2 122 0 1 3
-3 6.9 0.7 82 0 1 3
-2.9 6.4 -0.1 56 0 1 3
-2.9 6.5 0.2 70 0 1 3
-2.9 7.4 0.8 115 0 1 3
-2.8 7.7 0.8 132 0 1 3
-2.8 8 0.8 124 0 1 3
-2.7 6.9 0.7 103 0 1 3
-2.7 7.1 0.7 113 0 1 3
-2.7 9.7 -0.1 125 0 1 1
-2.7 10.1 -0.1 130 0 1 1
-2.7 10.6 -0.1 132 0 1 1
-2.7 11 -0.1 119 0 1 1
-2.7 11.4 0 118 0 1 1
-2.7 11.9 0 123 0 1 1
-2.7 12.3 0 138 0 1 1
-2.7 12.7 0 131 0 1 1
-2.7 13.2 -0.1 123 0 1 1
-2.7 13.7 -0.1 119 0 1 1
-2.7 14.1 0 110 0 1 1
-2.7 14.6 0 87 0 1 1
-2.7 15 0 81 0 1 1
-2.7 15.5 -0.1 106 0 1 1
-2.7 15.9 -0.1 130 0 1 1
-2.7 16.3 -0.1 121 0 1 1
-2.7 16.8 -0.1 117 0 1 1
-2.7 17.2 0 115 0 1 1
-2.7 17.7 0 115 0 1 1
-2.7 18.1 -0.1 117 0 1 1
-2.7 18.6 -0.1 116 0 1 1
-2.7 19 -0.1 118 0 1 1
-2.7 19.5 -0.1 114 0 1 1
-2.7 19.7 -0.1 86 0 1 1
-2.6 6.3 -0.2 117 0 1 1
-2.6 6.5 0.2 124 0 1 3
-2.6 6.8 0.3 104 0 1 3
-2.6 7 0.6 121 0 1 3
-2.6 7.3 0.7 146 0 1 3
-2.6 7.4 0.7 150 0 1 3
-2.5 4.6 -0.2 120 0 1 1
-2.5 5 -0.2 122 0 1 1
-2.5 5.4 -0.2 132 0 1 1
-2.5 5.8 -0.2 128 0 1 1
-2.5 6.4 0 85 0 1 3
-2.5 6.5 0.2 125 0 1 3
-2.5 7 0.5 123 0 1 3
-2.5 7.7 0.7 137 0 1 3
-2.5 8 0.7 120 0 1 3
-2.4 6.6 0.3 123 0 1 3
-2.4 7.1 0.6 103 0 1 3
-2.4 7.3 0.6 127 0 1 3
-2.4 7.8 0.6 128 0 1 3
-2.4 8 0.6 126 0 1 3
-2.3 6.6 0.2 106 0 1 3
-2.3 6.9 0.3 138 0 1 3
-2.3 7.1 0.4 132 0 1 3
-2.3 7.5 0.6 127 0 1 3
-2.3 8 0.2 126 0 1 3
-2.3 8.1 0.3 128 0 1 3
-2.3 10.6 -0.1 111 0 1 1
-2.3 11 0 126 0 1 1
-2.3 11.4 0 129 0 1 1
-2.3 11.9 0 133 0 1 1
-2.3 12.3 0 142 0 1 1
-2.3 12.7 0 135 0 1 1
-2.3 13.2 0 133 0 1 1
-2.3 13.7 -0.1 120 0 1 1
-2.3 14.1 -0.1 118 0 1 1
-2.3 14.6 -0.1 112 0 1 1
-2.3 15.1 -0.1 100 0 1 1
-2.3 15.5 -0.1 84 0 1 1
-2.3 15.9 -0.1 87 0 1 1
-2.3 16.4 0 124 0 1 1
-2.3 16.8 0 128 0 1 1
-2.3 17.3 0 124 0 1 1
-2.3 19 -0.1 110 0 1 1
-2.2 6.7 0 99 0 1 3
-2.2 6.9 0.2 114 0 1 3
-2.2 7.5 -0.1 116 0 1 1
-2.2 7.7 0.2 134 0 1 3
-2.2 8 -0.1 134 0 1 1
-2.2 8.1 -0.1 123 0 1 3
-2.2 8.4 -0.1 116 0 1 1
-2.2 8.8 -0.1 115 0 1 1
-2.2 9.3 -0.1 116 0 1 1
-2.2 9.7 -0.1 113 0 1 1
-2.2 10.1 -0.1 112 0 1 1
-2.2 17.7 0 118 0 1 1
-2.2 18.1 -0.1 119 0 1 1
-2.2 18.6 -0.1 123 0 1 1
-2.2 19.4 -0.1 107 0 1 1
-2.2 19.7 -0.1 89 0 1 1
-2.1 4.2 -0.2 127 0 1 1
-2.1 4.6 -0.2 124 0 1 1
-2.1 5 -0.2 124 0 1 1
-2.1 5.4 -0.2 125 0 1 1
-2.1 5.8 -0.2 130 0 1 1
-2.1 6.3 -0.2 115 0 1 1
-2.1 6.7 -0.2 101 0 1 1
-2.1 7.1 0.2 114 0 1 3
-2.1 7.1 0.3 154 0 1 3
-2.1 12.1 0 118 0 1 5
-2 11.8 0 97 0 1 5
-2 12.7 0 100 0 1 5
-1.9 11.1 0 102 0 1 5
-1.9 11.4 0 108 0 1 5
-1.9 11.9 0.1 98 0 1 5
-1.9 12.3 0.1 125 0 1 5
-1.8 9.3 -0.1 125 0 1 1
-1.8 9.7 -0.1 126 0 1 1
-1.8 10.2 -0.1 132 0 1 1
-1.8 10.7 0 95 0 1 5
-1.8 11.6 0.1 100 0 1 5
-1.8 12.4 0.2 95 0 1 5
-1.8 15.5 0 102 0 1 1
-1.8 16.8 0 119 0 1 1
-1.8 17.3 0 119 0 1 1
-1.8 17.7 0 122 0 1 1
-1.8 18.1 0 115 0 1 1
-1.8 18.6 0 111 0 1 1
-1.8 19 0 111 0 1 1
-1.8 19.4 0 112 0 1 1
-1.8 19.8 0 109 0 1 1
-1.7 6.3 -0.2 111 0 1 1
-1.7 6.7 -0.1 108 0 1 1
-1.7 7.1 -0.1 109 0 1 1
-1.7 7.5 -0.1 103 0 1 1
-1.7 8 -0.1 120 0 1 1
-1.7 8.4 -0.1 116 0 1 1
-1.7 8.8 -0.1 121 0 1 1
-1.7 10.3 0 106 0 1 5
-1.7 10.8 0.1 92 0 1 5
-1.7 11.2 0.1 104 0 1 5
-1.7 12.1 0.2 98 0 1 5
-1.6 4.2 -0.2 123 0 1 1
-1.6 4.6 -0.2 118 0 1 1
-1.6 5 -0.2 123 0 1 1
-1.6 5.4 -0.2 130 0 1 1
-1.6 5.8 -0.2 111 0 1 1
-1.6 10.5 0.1 92 0 1 5
-1.6 11.3 0.2 111 0 1 5
-1.6 11.7 0.2 99 0 1 5
-1.6 12.2 0.3 98 0 1 5
-1.5 9.7 0 114 0 1 5
-1.5 10.1 0 114 0 1 5
-1.5 11 0.2 93 0 1 5
-1.5 11.9 0.3 97 0 1 5
-1.4 10.3 0.1 106 0 1 5
-1.4 10.6 0.2 90 0 1 5
-1.4 11.1 0.3 106 0 1 5
-1.4 11.5 0.3 105 0 1 5
-1.4 12.4 0.4 99 0 1 5
-1.3 6.7 -0.1 115 0 1 1
-1.3 7.1 -0.1 113 0 1 1
-1.3 7.5 -0.1 103 0 1 1
-1.3 8 -0.1 122 0 1 1
-1.3 8.4 -0.1 116 0 1 1
-1.3 8.9 -0.1 125 0 1 1
-1.3 9.3 -0.1 124 0 1 1
-1.3 9.9 0.1 108 0 1 5
-1.3 10.8 0.4 101 0 1 5
-1.3 11.6 0.5 103 0 1 5
-1.3 12 0.5 107 0 1 5
-1.3 12.5 0.5 100 0 1 5
-1.2 3.7 -0.2 118 0 1 1
-1.2 4.1 -0.2 123 0 1 1
-1.2 4.6 -0.2 127 0 1 1
-1.2 5 -0.2 116 0 1 1
-1.2 5.4 -0.2 114 0 1 1
-1.2 5.8 -0.2 113 0 1 1
-1.2 6.3 -0.2 108 0 1 1
-1.2 9.5 0 114 0 1 5
-1.2 10 0.2 107 0 1 5
-1.2 10.4 0.3 87 0 1 5
-1.2 10.9 0.5 97 0 1 5
-1.2 11.3 0.5 100 0 1 5
-1.2 12.2 0.5 107 0 1 5
-1.1 9.7 0.1 112 0 1 5
-1.1 10.6 0.4 86 0 1 5
-1.1 11.4 0.6 99 0 1 5
-1.1 11.8 0.6 113 0 1 5
-1.1 12.3 0.6 103 0 1 5
-1 9 -0.1 95 0 1 5
-1 9.3 0 102 0 1 5
-1 9.8 0.3 110 0 1 5
-1 10.2 0.4 102 0 1 5
-1 11.1 0.6 98 0 1 5
-1 11.9 0.7 104 0 1 5
-1 12.8 0.6 100 0 1 5
-0.9 9.5 0.2 110 0 1 5
-0.9 10.3 0.5 102 0 1 5
-0.9 10.7 0.6 92 0 1 5
-0.9 11.2 0.7 100 0 1 5
-0.9 11.6 0.7 104 0 1 5
-0.9 12.5 0.7 97 0 1 5
-0.8 3.6 -0.2 119 0 1 1
-0.8 4.1 -0.2 122 0 1 1
-0.8 4.5 -0.2 117 0 1 1
-0.8 4.9 -0.1 121 0 1 1
-0.8 5.4 -0.2 122 0 1 1
-0.8 5.8 -0.2 121 0 1 1
-0.8 6.3 -0.1 118 0 1 1
-0.8 6.7 -0.1 120 0 1 1
-0.8 7.1 -0.1 117 0 1 1
-0.8 7.6 -0.1 113 0 1 1
-0.8 8 -0.1 116 0 1 1
-0.8 8.4 -0.1 119 0 1 1
-0.8 8.7 0 94 0 1 5
-0.8 9.1 0.1 102 0 1 5
-0.8 10 0.4 107 0 1 5
-0.8 10.8 0.7 91 0 1 5
-0.8 11.7 0.8 97 0 1 5
-0.8 12.1 0.7 96 0 1 5
-0.8 12.6 0.8 76 0 1 5
-0.8 13 0.7 79 0 1 5
-0.7 9.2 0.2 101 0 1 5
-0.7 9.6 0.3 103 0 1 5
-0.7 10.1 0.6 105 0 1 5
-0.7 10.5 0.7 95 0 1 5
-0.7 11.4 0.8 104 0 1 5
-0.7 12.2 0.9 78 0 1 5
-0.6 8.9 0.1 98 0 1 5
-0.6 9.8 0.5 107 0 1 5
-0.6 10.6 0.8 94 0 1 5
-0.6 11 0.8 108 0 1 5
-0.6 11.5 0.9 98 0 1 5
-0.6 11.9 0.9 88 0 1 5
-0.6 12.7 0.9 78 0 1 5
-0.5 8.5 0 95 0 1 5
-0.5 9 0.3 94 0 1 5
-0.5 9.4 0.4 97 0 1 5
-0.5 10.3 0.7 97 0 1 5
-0.5 11.1 0.9 100 0 1 5
-0.5 12 1.1 74 0 1 5
-0.5 12.4 1 73 0 1 5
-0.4 7.1 -0.1 122 0 1 1
-0.4 7.6 -0.1 124 0 1 1
-0.4 8 -0.1 115 0 1 1
-0.4 8.7 0.2 100 0 1 5
-0.4 9.5 0.5 103 0 1 5
-0.4 9.9 0.6 101 0 1 5
-0.4 10.4 0.9 95 0 1 5
-0.4 10.8 0.9 99 0 1 5
-0.4 11.7 1.1 77 0 1 5
-0.3 3.6 -0.2 124 0 1 1
-0.3 4.1 -0.2 122 0 1 1
-0.3 4.5 -0.2 123 0 1 1
-0.3 4.9 -0.1 125 0 1 1
-0.3 5.3 -0.1 127 0 1 1
-0.3 5.8 -0.1 124 0 1 1
-0.3 6.3 -0.1 126 0 1 1
-0.3 6.7 -0.1 120 0 1 1
-0.3 8.3 0.1 84 0 1 5
-0.3 9.2 0.4 108 0 1 5
-0.3 10.1 0.8 97 0 1 5
-0.3 10.9 1.1 99 0 1 5
-0.3 11.3 1.1 85 0 1 5
-0.3 11.8 1.2 75 0 1 5
-0.3 12.2 1.2 73 0 1 5
-0.2 8.5 0.3 90 0 1 5
-0.2 8.8 0.3 96 0 1 5
-0.2 9.3 0.6 122 0 1 5
-0.2 9.7 0.7 98 0 1 5
-0.2 10.6 1 93 0 1 5
-0.2 11.4 1.2 73 0 1 5
0 7.7 -0.1 111 0 1 5
-0.1 8.1 0.1 77 0 1 5
0 8.2 0.3 83 0 1 5
0 8.6 0.4 101 0 1 5
-0.1 9 0.5 102 0 1 5
0 9.5 0.7 121 0 1 5
-0.1 9.8 0.8 97 0 1 5
-0.1 10.2 1 95 0 1 5
0 10.3 1.1 99 0 1 5
-0.1 10.7 1.2 84 0 1 5
-0.1 11.1 1.2 82 0 1 5
0 11.2 1.4 84 0 1 5
0 11.6 1.4 87 0 1 5
-0.1 12 1.4 80 0 1 5
0 12.1 1.5 86 0 1 5
0.1 3.6 -0.2 123 0 1 1
0.1 4.1 -0.2 122 0 1 1
0.1 4.5 -0.1 127 0 1 1
0.1 4.9 -0.1 122 0 1 1
0.1 5.3 -0.1 130 0 1 1
0.1 5.8 -0.1 128 0 1 1
0.1 6.2 -0.1 125 0 1 1
0.1 6.7 -0.1 126 0 1 1
0.1 7.1 -0.1 117 0 1 1
0.1 7.5 -0.1 119 0 1 1
0.1 7.9 0.2 78 0 1 5
0.1 8.7 0.6 101 0 1 5
0.1 9.1 0.6 100 0 1 5
0.1 9.6 0.9 118 0 1 5
0.1 10 1 97 0 1 5
0.1 10.9 1.4 84 0 1 5
0.1 11.7 1.5 89 0 1 5
0.2 7.5 0 81 0 1 5
0.2 8.4 0.5 96 0 1 5
0.2 9.3 0.8 94 0 1 5
0.2 10.1 1.2 99 0 1 5
0.2 10.5 1.3 91 0 1 5
0.2 11 1.5 92 0 1 5
0.2 11.4 1.5 90 0 1 5
0.3 7.7 0.1 79 0 1 5
0.3 8 0.4 86 0 1 5
0.3 8.5 0.7 112 0 1 5
0.3 8.9 0.7 83 0 1 5
0.3 9.8 1 98 0 1 5
0.3 10.6 1.5 94 0 1 5
0.3 11.5 1.6 93 0 1 5
0.3 11.9 1.6 82 0 1 5
0.4 7.3 -0.1 117 0 1 5
0.4 8.2 0.6 94 0 1 5
0.4 9 0.9 76 0 1 5
0.4 9.4 0.9 112 0 1 5
0.4 9.9 1.2 96 0 1 5
0.4 10.3 1.4 102 0 1 5
0.4 11.2 1.6 98 0 1 5
0.5 3.1 -0.2 127 0 1 1
0.5 3.6 -0.1 126 0 1 1
0.5 4 -0.1 126 0 1 1
0.5 4.5 -0.1 127 0 1 1
0.5 4.9 -0.1 128 0 1 1
0.5 5.3 -0.1 130 0 1 1
0.5 5.8 -0.1 135 0 1 1
0.5 6.2 -0.1 118 0 1 1
0.5 6.7 -0.1 127 0 1 1
0.5 7.1 0 121 0 1 1
0.5 7.4 0.1 84 0 1 5
0.5 7.8 0.3 92 0 1 5
0.5 8.7 0.8 55 0 1 5
0.5 9.6 1.1 109 0 1 5
0.5 10.4 1.5 102 0 1 5
0.5 10.8 1.6 103 0 1 5
0.5 11.3 1.7 98 0 1 5
0.5 11.7 1.8 88 0 1 5
0.6 8 0.5 90 0 1 5
0.6 8.3 0.7 117 0 1 5
0.6 8.8 1 45 0 1 5
0.6 9.2 1 104 0 1 5
0.6 10.1 1.4 97 0 1 5
0.6 10.9 1.7 98 0 1 5
0.6 11.8 1.8 97 0 1 5
0.7 7.6 0.3 89 0 1 5
0.7 8.5 0.9 133 0 1 5
0.7 9.3 1.2 96 0 1 5
0.7 9.7 1.3 74 0 1 5
0.7 10.2 1.6 111 0 1 5
0.7 10.6 1.7 109 0 1 5
0.7 11.1 1.8 98 0 1 5
0.7 11.5 1.9 100 0 1 5
0.8 6.9 -0.1 122 0 1 5
0.8 7.2 0.1 87 0 1 5
0.8 7.7 0.5 97 0 1 5
0.8 8.1 0.7 109 0 1 5
0.8 9 1.1 63 0 1 5
0.8 9.8 1.4 82 0 1 5
0.8 10.7 1.8 109 0 1 5
0.8 11.6 2 97 0 1 5
0.9 3.1 -0.1 124 0 1 1
0.9 3.6 -0.1 132 0 1 1
0.9 4.5 -0.1 126 0 1 1
0.9 4.9 -0.1 125 0 1 1
0.9 5.3 -0.1 128 0 1 1
0.9 5.8 -0.1 127 0 1 1
0.9 6.2 -0.1 128 0 1 1
0.9 6.7 -0.1 129 0 1 1
0.9 7.4 0.3 92 0 1 5
0.9 8.2 0.8 125 0 1 5
0.9 8.6 1.1 129 0 1 5
0.9 9.1 1.3 98 0 1 5
0.9 9.5 1.3 94 0 1 5
0.9 10 1.6 103 0 1 5
0.9 10.4 1.7 116 0 1 5
0.9 11.2 2 94 0 1 5
1 4 -0.1 125 0 1 1
1 6.6 0 67 0 1 5
1 7 0.1 80 0 1 5
1 7.9 0.6 91 0 1 5
1 8.8 1.2 138 0 1 5
1 9.6 1.5 86 0 1 5
1 10.5 1.8 112 0 1 5
1 10.9 1.9 104 0 1 5
1 11.4 2.1 94 0 1 5
1.1 7.2 0.3 86 0 1 5
1.1 7.5 0.5 101 0 1 5
1.1 8 0.8 97 0 1 5
1.1 8.4 1 123 0 1 5
1.1 8.9 1.4 138 0 1 5
1.1 9.3 1.5 89 0 1 5
1.1 10.1 1.7 120 0 1 5
1.1 11 2 99 0 1 5
1.2 6.4 0 80 0 1 5
1.2 6.8 0.1 75 0 1 5
1.2 7.7 0.6 56 0 1 5
1.2 8.5 1.2 136 0 1 5
1.2 9.4 1.6 89 0 1 5
1.2 9.8 1.7 104 0 1 5
1.2 10.3 1.9 114 0 1 5
1.2 10.7 2 106 0 1 5
1.2 11.5 2.2 97 0 1 5
1.3 3.6 -0.1 108 0 1 1
1.3 4.5 -0.1 126 0 1 1
1.3 4.9 -0.1 126 0 1 1
1.3 5.3 -0.1 131 0 1 1
1.3 5.8 -0.1 126 0 1 1
1.3 6.9 0.3 85 0 1 5
1.3 7.3 0.4 103 0 1 5
1.3 7.8 0.7 83 0 1 5
1.3 8.2 0.9 104 0 1 5
1.3 9.1 1.5 109 0 1 5
1.3 9.9 1.8 121 0 1 5
1.3 10.8 2 107 0 1 5
1.3 11.2 2.2 99 0 1 5
1.4 3.1 -0.1 109 0 1 1
1.4 4 -0.1 124 0 1 1
1.4 6.2 -0.1 130 0 1 1
1.4 6.6 0.1 79 0 1 5
1.4 7.5 0.5 122 0 1 5
1.4 8.3 1.1 123 0 1 5
1.4 8.7 1.3 131 0 1 5
1.4 9.2 1.6 106 0 1 5
1.4 9.6 1.8 100 0 1 5
1.4 10.4 1.9 112 0 1 5
1.4 11.3 2.3 95 0 1 5
1.5 6.2 -0.1 79 0 1 5
1.5 6.7 0.3 77 0 1 5
1.5 7.1 0.5 96 0 1 5
1.5 8 0.8 94 0 1 5
1.5 8.8 1.5 114 0 1 5
1.5 9.7 1.9 113 0 1 5
1.5 10.1 1.8 121 0 1 5
1.5 10.6 2 93 0 1 5
1.5 11 2.2 87 0 1 5
1.6 6.4 0.1 77 0 1 5
1.6 7.2 0.6 92 0 1 5
1.6 7.6 0.7 64 0 1 5
1.6 8.1 1 104 0 1 5
1.6 8.5 1.2 128 0 1 5
1.6 9.3 1.8 96 0 1 5
1.6 10.2 1.9 114 0 1 5
1.6 11.1 2.4 102 0 1 5
1.7 2.6 -0.1 105 0 1 1
1.7 3.1 -0.1 104 0 1 1
1.7 3.5 -0.1 111 0 1 1
1.7 4.4 -0.1 133 0 1 1
1.7 4.9 -0.1 131 0 1 1
1.7 5.3 -0.1 138 0 1 1
1.7 5.8 -0.1 131 0 1 1
1.7 6 -0.1 128 0 1 5
1.7 6.9 0.5 88 0 1 5
1.7 7.7 0.8 81 0 1 5
1.7 8.6 1.4 103 0 1 5
1.7 9 1.7 104 0 1 5
1.7 9.5 1.9 103 0 1 5
1.7 9.9 1.9 113 0 1 5
1.7 10.7 2.2 92 0 1 5
1.8 4 -0.1 117 0 1 1
1.8 6.1 0.1 76 0 1 5
1.8 6.5 0.3 81 0 1 5
1.8 7 0.6 98 0 1 5
1.8 7.4 0.7 77 0 1 5
1.8 8.3 1.2 120 0 1 5
1.8 9.1 1.8 104 0 1 5
1.8 10 2 110 0 1 5
1.8 10.4 2 97 0 1 5
1.8 10.9 2.4 97 0 1 5
1.8 11.2 2.5 98 0 1 5
1.9 6.7 0.5 84 0 1 5
1.9 7.5 0.8 79 0 1 5
1.9 7.9 0.9 101 0 1 5
1.9 8.4 1.3 116 0 1 5
1.9 8.8 1.6 98 0 1 5
1.9 9.6 2 111 0 1 5
1.9 10.5 2.2 76 0 1 5
2 5.9 0.1 72 0 1 5
2 6.3 0.3 83 0 1 5
2 7.2 0.8 98 0 1 5
2 8 1 109 0 1 5
2 8.9 1.8 113 0 1 5
2 9.3 1.9 99 0 1 5
2 9.8 2 112 0 1 5
2 10.2 2 89 0 1 5
2 11 2.5 109 0 1 5
2.1 3.5 -0.1 115 0 1 1
2.1 6.4 0.5 86 0 1 5
2.1 6.8 0.7 91 0 1 5
2.1 7.3 0.9 109 0 1 5
2.1 7.7 0.9 92 0 1 5
2.1 8.6 1.5 106 0 1 5
2.1 9.4 2.1 114 0 1 5
2.1 10.3 2.3 76 0 1 5
2.1 10.7 2.4 81 0 1 5
2.2 2.6 -0.1 108 0 1 1
2.2 3 -0.1 112 0 1 1
2.2 4 -0.1 128 0 1 1
2.2 4.4 -0.1 121 0 1 1
2.2 4.9 -0.1 125 0 1 1
2.2 5.3 -0.1 123 0 1 1
2.2 6.1 0.3 73 0 1 5
2.2 7 0.8 87 0 1 5
2.2 7.8 1 104 0 1 5
2.2 8.2 1.2 121 0 1 5
2.2 8.7 1.6 97 0 1 5
2.2 9.1 1.9 103 0 1 5
2.2 9.9 2.1 91 0 1 5
2.2 10.8 2.6 112 0 1 5
2.3 5.7 0.1 77 0 1 5
2.3 6.2 0.5 87 0 1 5
2.3 6.6 0.7 81 0 1 5
2.3 7.5 1 114 0 1 5
2.3 8.3 1.3 104 0 1 5
2.3 9.2 2 108 0 1 5
2.3 9.6 2.1 112 0 1 5
2.3 10.1 2.3 83 0 1 5
2.3 10.5 2.5 90 0 1 5
2.3 11 2.7 103 0 1 5
2.4 5.9 0.3 89 0 1 5
2.4 6.7 0.9 88 0 1 5
2.4 7.1 1 102 0 1 5
2.4 7.6 1 124 0 1 5
2.4 8 1.1 115 0 1 5
2.4 8.9 1.8 96 0 1 5
2.4 9.7 2.2 104 0 1 5
2.4 10.6 2.6 105 0 1 5
2.5 5.5 0.1 95 0 1 5
2.5 6.4 0.7 82 0 1 5
2.5 7.2 1 112 0 1 5
2.5 8.1 1.2 106 0 1 5
2.5 8.5 1.5 107 0 1 5
2.5 9 2 102 0 1 5
2.5 9.4 2.1 115 0 1 5
2.5 9.9 2.3 89 0 1 5
2.5 10.2 2.5 90 0 1 5
2.6 2.6 -0.1 117 0 1 1
2.6 3 -0.1 131 0 1 1
2.6 3.5 -0.1 128 0 1 1
2.6 3.9 -0.1 128 0 1 1
2.6 4.4 -0.1 128 0 1 1
2.6 4.8 -0.1 125 0 1 1
2.6 5.6 0.3 82 0 1 5
2.6 6 0.5 88 0 1 5
2.6 6.5 0.9 84 0 1 5
2.6 6.9 1 92 0 1 5
2.6 7.8 1.1 116 0 1 5
2.6 8.6 1.7 105 0 1 5
2.6 9.5 2.2 106 0 1 5
2.6 10.4 2.7 100 0 1 5
2.6 10.7 2.8 89 0 1 5
2.7 2.8 -0.1 41 0 1 2
2.7 5.3 0.1 104 0 1 5
2.7 6.2 0.7 92 0 1 5
2.7 7 1.1 107 0 1 5
2.7 7.4 1.1 112 0 1 5
2.7 7.9 1.2 105 0 1 5
2.7 8.3 1.4 104 0 1 5
2.7 8.8 1.9 100 0 1 5
2.7 9.1 2.1 108 0 1 5
2.7 10 2.5 83 0 1 5
2.8 2.8 0 53 0 1 2
2.8 2.8 0.1 55 0 1 2
2.8 2.8 0.2 116 0 1 2
2.8 5.4 0.3 95 0 1 5
2.8 5.8 0.5 88 0 1 5
2.8 6.7 1 94 0 1 5
2.8 7.5 1.1 129 0 1 5
2.8 8.4 1.6 105 0 1 5
2.8 9.3 2.1 113 0 1 5
2.8 9.7 2.3 94 0 1 5
2.8 10.2 2.7 95 0 1 5
2.8 10.5 2.8 113 0 1 5
2.9 2.9 0.2 103 0 1 2
2.9 5.1 0.1 114 0 1 5
2.9 5.9 0.7 92 0 1 5
2.9 6.3 0.9 88 0 1 5
2.9 6.8 1.1 85 0 1 5
2.9 7.2 1.1 105 0 1 5
2.9 7.7 1.2 119 0 1 5
2.9 8.1 1.3 105 0 1 5
2.9 8.9 2 109 0 1 5
2.9 9.8 2.5 88 0 1 5
2.9 10.7 2.8 104 0 1 5
3 2.5 0 71 0 1 2
3 2.9 0.2 115 0 1 2
3 3.2 0.2 116 0 1 2
3 3.5 -0.1 126 0 1 1
3 5.6 0.5 98 0 1 5
3 6.5 1.1 91 0 1 5
3 7.3 1.2 101 0 1 5
3 8.2 1.5 98 0 1 5
3 8.6 1.8 98 0 1 5
3 9.1 2.1 121 0 1 5
3 9.4 2.2 99 0 1 5
3 10.3 2.8 110 0 1 5
3.1 2.4 -0.1 83 0 1 2
3.1 2.6 0.2 86 0 1 2
3.1 3.9 -0.1 121 0 1 1
3.1 4.4 0 128 0 1 1
3.1 4.9 0.1 110 0 1 5
3.1 5.2 0.3 108 0 1 5
3.1 5.7 0.7 102 0 1 5
3.1 6.1 0.9 85 0 1 5
3.1 6.6 1.2 101 0 1 5
3.1 7 1.2 99 0 1 5
3.1 7.8 1.3 120 0 1 5
3.1 8.7 2 117 0 1 5
3.1 9.6 2.4 103 0 1 5
3.1 10 2.7 94 0 1 5
3.1 10.5 2.8 94 0 1 5
3.2 2.5 0.1 90 0 1 2
3.2 2.6 0.2 105 0 1 2
3.2 2.8 0.3 140 0 1 2
3.2 3 0.3 133 0 1 2
3.2 3.1 0.2 109 0 1 2
3.2 3.2 0.2 116 0 1 2
3.2 5.4 0.5 108 0 1 5
3.2 6.2 1.1 100 0 1 5
3.2 7.1 1.3 98 0 1 5
3.2 7.5 1.3 92 0 1 5
3.2 8 1.5 99 0 1 5
3.2 8.4 1.7 103 0 1 5
3.2 9.2 2.2 124 0 1 5
3.2 10.1 2.7 126 0 1 5
3.3 2.6 0.3 140 0 1 2
3.3 4.6 0.1 113 0 1 5
3.3 5 0.3 111 0 1 5
3.3 5.5 0.7 119 0 1 5
3.3 5.9 0.9 98 0 1 5
3.3 6.7 1.3 110 0 1 5
3.3 7.6 1.3 111 0 1 5
3.3 8.5 1.9 115 0 1 5
3.3 8.9 2 131 0 1 5
3.3 9.4 2.3 121 0 1 5
3.3 9.7 2.5 130 0 1 5
3.3 10.6 2.9 96 0 1 5
3.4 5.1 0.5 94 0 1 5
3.4 6 1 107 0 1 5
3.4 6.4 1.2 102 0 1 5
3.4 6.9 1.4 110 0 1 5
3.4 7.3 1.3 107 0 1 5
3.4 8.1 1.6 99 0 1 5
3.4 9 2.1 132 0 1 5
3.4 9.9 2.6 134 0 1 5
3.4 10.2 2.8 128 0 1 5
3.5 2.3 -0.1 135 0 1 2
3.5 2.4 0 134 0 1 2
3.5 2.5 0.1 140 0 1 2
3.5 3.9 -0.1 124 0 1 1
3.5 4.4 0.1 116 0 1 5
3.5 4.8 0.3 96 0 1 5
3.5 5.7 0.8 113 0 1 5
3.5 6.5 1.3 108 0 1 5
3.5 7.4 1.4 88 0 1 5
3.5 7.8 1.5 105 0 1 5
3.5 8.3 1.8 121 0 1 5
3.5 8.6 2 133 0 1 5
3.5 9.5 2.4 129 0 1 5
3.5 10.4 2.8 104 0 1 5
3.6 2.6 0.1 136 0 1 2
3.6 2.8 0.2 129 0 1 2
3.6 4.9 0.5 92 0 1 5
3.6 5.3 0.6 117 0 1 5
3.6 5.8 1 116 0 1 5
3.6 6.2 1.2 119 0 1 5
3.6 7 1.4 113 0 1 5
3.6 7.9 1.6 101 0 1 5
3.6 8.8 2 136 0 1 5
3.6 9.2 2.1 130 0 1 5
3.6 9.7 2.4 132 0 1 5
3.6 10 2.7 136 0 1 5
3.7 4.6 0.3 110 0 1 5
3.7 5.4 0.8 118 0 1 5
3.7 6.3 1.3 124 0 1 5
3.7 6.7 1.4 107 0 1 5
3.7 7.2 1.4 115 0 1 5
3.7 7.6 1.5 103 0 1 5
3.7 8.4 1.9 137 0 1 5
3.7 9.3 2.2 131 0 1 5
3.7 10.2 2.8 126 0 1 5
3.8 4.2 0.1 117 0 1 5
3.8 4.7 0.5 107 0 1 5
3.8 5.1 0.6 108 0 1 5
3.8 6 1.1 116 0 1 5
3.8 6.8 1.5 108 0 1 5
3.8 7.7 1.6 98 0 1 5
3.8 8.1 1.8 120 0 1 5
3.8 8.6 1.9 138 0 1 5
3.8 8.9 2.1 130 0 1 5
3.8 9.8 2.5 127 0 1 5
3.9 2.1 -0.1 140 0 1 1
3.9 2.5 -0.1 146 0 1 1
3.9 3.9 0 119 0 1 1
3.9 4.4 0.2 117 0 1 5
3.9 5.2 0.8 112 0 1 5
3.9 5.6 0.9 114 0 1 5
3.9 6.1 1.2 114 0 1 5
3.9 6.5 1.4 110 0 1 5
3.9 7.3 1.5 80 0 1 5
3.9 8.2 1.8 146 0 1 5
3.9 9.1 2.1 127 0 1 5
3.9 9.5 2.3 131 0 1 5
3.9 10 2.6 125 0 1 5
3.9 10.3 2.8 97 0 1 5
4 4 0 122 0 1 5
4 4.9 0.6 120 0 1 5
4 5.7 1.1 115 0 1 5
4 6.6 1.5 101 0 1 5
4 7 1.5 110 0 1 5
4 7.5 1.7 99 0 1 5
4 7.9 1.8 121 0 1 5
4 8.7 2 130 0 1 5
4 9.6 2.4 120 0 1 5
4.1 4.1 0.2 121 0 1 5
4.1 4.5 0.4 120 0 1 5
4.1 5 0.8 122 0 1 5
4.1 5.4 0.9 116 0 1 5
4.1 6.2 1.3 116 0 1 5
4.1 7.1 1.7 106 0 1 5
4.1 8 1.8 137 0 1 5
4.1 8.4 1.8 145 0 1 5
4.1 8.9 2.1 126 0 1 5
4.1 9.2 2.2 124 0 1 5
4.1 10.1 2.7 124 0 1 5
4.2 3.8 0 124 0 1 5
4.2 4.6 0.6 125 0 1 5
4.2 5.5 1.1 117 0 1 5
4.2 5.9 1.2 120 0 1 5
4.2 6.4 1.4 98 0 1 5
4.2 6.8 1.6 102 0 1 5
4.2 7.6 1.8 125 0 1 5
4.2 8.5 1.9 136 0 1 5
4.2 9.4 2.3 114 0 1 5
4.2 9.7 2.5 115 0 1 5
4.2 10.3 2.8 116 0 1 5
4.3 2.1 -0.1 143 0 1 1
4.3 3.9 0.2 124 0 1 5
4.3 4.3 0.4 120 0 1 5
4.3 5.2 0.9 118 0 1 5
4.3 6 1.3 106 0 1 5
4.3 6.9 1.7 105 0 1 5
4.3 7.3 1.8 89 0 1 5
4.3 8.7 2 137 0 1 5
4.3 9 2.2 126 0 1 5
4.3 9.9 2.6 118 0 1 5
4.4 2.5 -0.1 136 0 1 1
4.4 3 -0.1 134 0 1 1
4.4 3.5 -0.1 132 0 1 1
4.4 3.6 0 126 0 1 5
4.4 4.4 0.6 124 0 1 5
4.4 4.8 0.8 130 0 1 5
4.4 5.3 1 118 0 1 5
4.4 5.7 1.2 117 0 1 5
4.4 6.5 1.6 97 0 1 5
4.4 7.4 1.8 114 0 1 5
4.4 8.3 1.8 143 0 1 5
4.4 9.2 2.3 117 0 1 5
4.4 9.5 2.4 109 0 1 5
4.4 10 2.7 96 0 1 5
4.5 4.1 0.3 124 0 1 5
4.5 4.9 0.9 119 0 1 5
4.5 5.8 1.3 110 0 1 5
4.5 6.2 1.5 96 0 1 5
4.5 6.7 1.7 98 0 1 5
4.5 7.1 1.8 88 0 1 5
4.5 7.9 1.8 115 0 1 5
4.5 8.8 2.1 142 0 1 5
4.5 9.7 2.6 101 0 1 5
4.6 3.7 0.1 117 0 1 5
4.6 4.2 0.5 130 0 1 5
4.6 4.6 0.7 121 0 1 5
4.6 5.5 1.2 110 0 1 5
4.6 6.3 1.6 91 0 1 5
4.6 7.2 1.9 118 0 1 5
4.6 8.1 1.8 136 0 1 5
4.6 8.4 1.9 133 0 1 5
4.6 9 2.2 139 0 1 5
4.6 9.3 2.4 115 0 1 5
4.7 3.9 0.3 117 0 1 5
4.7 4.7 0.9 112 0 1 5
4.7 5.1 1.1 118 0 1 5
4.7 5.6 1.4 108 0 1 5
4.7 6 1.5 100 0 1 5
4.7 6.5 1.7 101 0 1 5
4.7 6.8 1.8 109 0 1 5
4.7 7.7 1.8 111 0 1 5
4.7 8.6 2 135 0 1 5
4.7 9.5 2.6 115 0 1 5
4.7 9.8 2.7 101 0 1 5
4.8 2.6 -0.1 139 0 1 1
4.8 3.5 0.1 117 0 1 5
4.8 4.4 0.7 122 0 1 5
4.8 5.2 1.2 123 0 1 5
4.8 6.1 1.6 72 0 1 5
4.8 7 1.9 109 0 1 5
4.8 7.4 1.9 111 0 1 5
4.8 7.9 1.9 136 0 1 5
4.8 8.2 1.9 135 0 1 5
4.8 9.1 2.3 144 0 1 5
4.9 3 0 138 0 1 1
4.9 3.6 0.3 124 0 1 5
4.9 4 0.5 126 0 1 5
4.9 4.5 0.9 113 0 1 5
4.9 4.9 1.1 122 0 1 5
4.9 5.4 1.4 126 0 1 5
4.9 5.8 1.5 118 0 1 5
4.9 6.6 1.8 111 0 1 5
4.9 7.5 1.9 119 0 1 5
4.9 8.4 1.9 130 0 1 5
4.9 8.7 2 138 0 1 5
4.9 9.2 2.4 139 0 1 5
4.9 9.6 2.7 90 0 1 5
5 3.3 0 120 0 1 5
5 4.1 0.6 133 0 1 5
5 5 1.2 130 0 1 5
5 5.9 1.6 108 0 1 5
5 6.3 1.7 100 0 1 5
5 6.8 1.9 100 0 1 5
5 7.1 2 90 0 1 5
5 8 1.9 136 0 1 5
5 8.9 2.1 139 0 1 5
5.1 3.4 0.2 129 0 1 5
5.1 3.8 0.4 133 0 1 5
5.1 4.3 0.8 137 0 1 5
5.1 4.7 1 125 0 1 5
5.1 5.5 1.5 123 0 1 5
5.1 6.4 1.8 100 0 1 5
5.1 7.3 2 101 0 1 5
5.1 7.6 2 114 0 1 5
5.1 8.2 2 127 0 1 5
5.1 8.5 2 127 0 1 5
5.1 9.4 2.6 143 0 1 5
5.2 3.1 0 138 0 1 5
5.2 3.9 0.5 147 0 1 5
5.2 4.8 1.2 132 0 1 5
5.2 5.2 1.4 142 0 1 5
5.2 5.7 1.6 121 0 1 5
5.2 6 1.7 118 0 1 5
5.2 6.9 2.1 106 0 1 5
5.2 7.8 2 126 0 1 5
5.2 8.7 2 121 0 1 5
5.2 9 2.2 141 0 1 5
5.2 9.5 2.6 114 0 1 5
5.3 3.2 0.1 140 0 1 5
5.3 3.6 0.3 134 0 1 5
5.3 4.4 1 138 0 1 5
5.3 5.3 1.5 144 0 1 5
5.3 6.2 1.8 118 0 1 5
5.3 6.6 2 95 0 1 5
5.3 7.1 2.1 92 0 1 5
5.3 7.4 2.1 110 0 1 5
5.3 8.3 2 107 0 1 5
5.3 9.2 2.4 137 0 1 5
5.4 3.7 0.5 139 0 1 5
5.4 4.1 0.7 147 0 1 5
5.4 4.6 1.1 157 0 1 5
5.4 5 1.4 169 0 1 5
5.4 5.8 1.7 139 0 1 5
5.4 6.7 2.2 93 0 1 5
5.4 7.6 2.1 114 0 1 5
5.4 7.9 2.1 127 0 1 5
5.4 8.5 2.1 121 0 1 5
5.4 8.8 2.1 120 0 1 5
5.5 3.4 0.2 134 0 1 5
5.5 4.2 0.8 147 0 1 5
5.5 5.1 1.4 157 0 1 5
5.5 5.5 1.6 165 0 1 5
5.5 6 1.8 155 0 1 5
5.5 6.3 2 115 0 1 5
5.5 7.2 2.2 94 0 1 5
5.5 8.1 2.1 106 0 1 5
5.5 9 2.3 127 0 1 5
5.5 9.3 2.6 109 0 1 5
5.6 3 0.1 141 0 1 5
5.6 3.5 0.4 140 0 1 5
5.6 3.9 0.6 145 0 1 5
5.6 4.7 1.2 155 0 1 5
5.6 5.6 1.6 166 0 1 5
5.6 6.5 2.2 122 0 1 5
5.6 6.9 2.3 82 0 1 5
5.6 7.4 2.3 107 0 1 5
5.6 7.7 2.2 108 0 1 5
5.6 8.6 2.1 128 0 1 5
5.7 3.1 0.2 133 0 1 5
5.7 4 0.8 144 0 1 5
5.7 4.4 1 156 0 1 5
5.7 4.9 1.3 136 0 1 5
5.7 5.3 1.4 153 0 1 5
5.7 6.1 1.9 152 0 1 5
5.7 7 2.4 94 0 1 5
5.7 7.9 2.2 107 0 1 5
5.7 8.2 2.1 113 0 1 5
5.7 8.7 2.2 124 0 1 5
5.7 9.1 2.4 135 0 1 5
5.8 3.6 0.5 140 0 1 5
5.8 4.5 1.1 162 0 1 5
5.8 5.4 1.5 166 0 1 5
5.8 5.8 1.7 169 0 1 5
5.8 6.3 2 142 0 1 5
5.8 6.6 2.3 120 0 1 5
5.8 7.5 2.3 115 0 1 5
5.8 8.4 2.2 113 0 1 5
5.8 9.3 2.5 123 0 1 5
5.9 2.9 0.1 137 0 1 5
5.9 3.3 0.3 129 0 1 5
5.9 3.8 0.7 140 0 1 5
5.9 4.2 0.9 160 0 1 5
5.9 5 1.3 156 0 1 5
5.9 5.9 1.8 139 0 1 5
5.9 6.8 2.4 123 0 1 5
5.9 7.1 2.4 109 0 1 5
5.9 7.7 2.3 127 0 1 5
5.9 8 2.2 112 0 1 5
5.9 8.9 2.3 123 0 1 5
6 3.4 0.4 137 0 1 5
6 4.3 1 168 0 1 5
6 4.7 1.1 160 0 1 5
6 5.2 1.4 165 0 1 5
6 5.5 1.6 154 0 1 5
6 6.4 2.2 161 0 1 5
6 7.3 2.5 99 0 1 5
6 8.2 2.3 116 0 1 5
6 8.5 2.2 108 0 1 5
6 9 2.5 138 0 1 5
6.1 3.1 0.2 140 0 1 5
6.1 3.9 0.8 151 0 1 5
6.1 4.8 1.2 164 0 1 5
6.1 5.7 1.8 127 0 1 5
6.1 6.1 2 132 0 1 5
6.1 6.6 2.3 150 0 1 5
6.1 6.9 2.5 129 0 1 5
6.1 8.7 2.3 116 0 1 5
6.2 3.2 0.4 140 0 1 5
6.2 3.6 0.6 136 0 1 5
6.2 4.1 0.9 162 0 1 5
6.2 4.5 1.1 168 0 1 5
6.2 5.3 1.5 134 0 1 5
6.2 6.2 2.1 149 0 1 5
6.2 7.1 2.5 116 0 1 5
6.2 7.4 2.5 95 0 1 5
6.2 8 2.4 118 0 1 5
6.2 8.3 2.3 116 0 1 5
6.2 8.8 2.4 128 0 1 5
6.2 9.2 2.5 138 0 1 5
6.3 3.7 0.7 137 0 1 5
6.3 4.6 1.2 161 0 1 5
6.3 5 1.3 152 0 1 5
6.3 5.5 1.7 124 0 1 5
6.3 5.8 1.9 143 0 1 5
6.3 6.7 2.3 160 0 1 5
6.3 7.6 2.5 104 0 1 5
6.3 8.5 2.4 107 0 1 5
6.4 3.4 0.5 141 0 1 5
6.4 4.2 1 161 0 1 5
6.4 5.1 1.5 129 0 1 5
6.4 6 2.1 163 0 1 5
6.4 6.4 2.2 148 0 1 5
6.4 6.9 2.4 150 0 1 5
6.4 7.2 2.5 98 0 1 5
6.4 7.7 2.5 108 0 1 5
6.4 8.1 2.4 113 0 1 5
6.4 9 2.5 158 0 1 5
6.4 9.9 2.6 126 0 1 5
6.5 3.5 0.6 138 0 1 5
6.5 3.9 0.8 140 0 1 5
6.5 4.4 1.1 164 0 1 5
6.5 4.8 1.3 155 0 1 5
6.5 5.6 1.9 157 0 1 5
6.5 6.5 2.2 167 0 1 5
6.5 8.3 2.4 99 0 1 5
6.5 8.6 2.4 149 0 1 5
6.5 9.5 2.5 135 0 1 5
6.6 4 1 148 0 1 5
6.6 4.9 1.4 139 0 1 5
6.6 5.3 1.7 139 0 1 5
6.6 5.8 2 167 0 1 5
6.6 6.1 2.1 158 0 1 5
6.6 6.6 2.3 170 0 1 5
6.6 7 2.5 146 0 1 5
6.6 9.6 2.6 145 0 1 5
6.6 10 2.7 100 0 1 5
6.7 3.7 0.7 132 0 1 5
6.7 4.2 1.1 150 0 1 5
6.7 4.5 1.2 159 0 1 5
6.7 5.4 1.8 164 0 1 5
6.7 7.2 2.5 85 0 1 5
6.8 3.8 0.9 137 0 1 5
6.8 4.7 1.4 157 0 1 5
6.8 5 1.6 151 0 1 5
6.8 5.6 1.9 167 0 1 5
6.8 5.9 2 160 0 1 5
6.8 6.8 2.5 160 0 1 5
6.8 9.4 2.5 136 0 1 5
6.8 9.8 2.7 120 0 1 5
6.9 3.4 0.6 129 0 1 5
6.9 4.3 1.2 148 0 1 5
6.9 5.2 1.7 164 0 1 5
6.9 6.1 2.1 166 0 1 5
6.9 6.4 2.2 177 0 1 5
6.9 6.9 2.5 136 0 1 5
7 3.6 0.7 128 0 1 5
7 4 1 136 0 1 5
7 4.5 1.3 144 0 1 5
7 4.8 1.5 142 0 1 5
7 5.7 2 160 0 1 5
7 6.6 2.4 172 0 1 5
7 7.5 2.6 132 0 1 5
7 9.6 2.5 165 0 1 5
7.1 4.1 1.1 138 0 1 5
7.1 5 1.6 146 0 1 5
7.1 5.3 1.8 161 0 1 5
7.1 5.9 2 168 0 1 5
7.1 6.2 2.1 179 0 1 5
7.1 9.7 2.6 113 0 1 5
7.2 3.7 0.8 134 0 1 5
7.2 4.6 1.4 150 0 1 5
7.2 5.5 1.9 157 0 1 5
7.2 6.4 2.2 179 0 1 5
7.2 6.7 2.5 136 0 1 5
7.3 3.9 0.9 134 0 1 5
7.3 4.3 1.2 135 0 1 5
7.3 4.8 1.5 135 0 1 5
7.3 5.1 1.7 148 0 1 5
7.3 6 2.1 175 0 1 5
7.4 4.4 1.2 142 0 1 5
7.4 5.3 1.7 150 0 1 5
7.4 5.6 1.9 167 0 1 5
7.4 6.1 2.2 173 0 1 5
7.4 6.5 2.4 168 0 1 5
7.4 9.5 2.5 151 0 1 5
7.5 4 1 149 0 1 5
7.5 4.9 1.6 133 0 1 5
7.5 5.8 2 175 0 1 5
7.5 6.7 2.4 121 0 1 5
7.6 4.2 1.1 124 0 1 5
7.6 4.5 1.3 129 0 1 5
7.6 5.1 1.7 145 0 1 5
7.6 5.4 1.8 169 0 1 5
7.6 6.3 2.3 161 0 1 5
7.7 4.7 1.5 115 0 1 5
7.7 5.6 1.9 170 0 1 5
7.7 5.9 2.1 171 0 1 5
7.7 6.4 2.4 136 0 1 5
7.8 4 1 118 0 1 5
7.8 4.3 1.2 122 0 1 5
7.8 5.2 1.7 153 0 1 5
7.8 6.1 2.3 173 0 1 5
7.9 4.5 1.3 118 0 1 5
7.9 4.8 1.5 126 0 1 5
7.9 5.4 1.8 143 0 1 5
7.9 5.7 2.1 163 0 1 5
8 4.1 1.1 110 0 1 5
8 5 1.6 122 0 1 5
8 5.9 2.2 162 0 1 5
8 6.2 2.3 159 0 1 5
8.1 4.3 1.1 138 0 1 5
8.1 4.6 1.3 116 0 1 5
8.1 5.5 1.9 134 0 1 5
8.2 4.8 1.4 118 0 1 5
8.2 5.1 1.7 118 0 1 5
8.2 5.6 2 131 0 1 5
8.2 6 2.2 140 0 1 5
8.3 4.4 1.2 117 0 1 5
8.3 5.3 1.8 121 0 1 5
8.4 4.6 1.3 116 0 1 5
8.4 4.9 1.5 113 0 1 5
8.4 5.4 1.8 123 0 1 5
8.4 5.8 2.1 117 0 1 5
8.5 5.1 1.6 93 0 1 5
8.6 4.7 1.3 118 0 1 5
8.6 5.6 1.8 104 0 1 5
8.7 4.9 1.4 117 0 1 5
8.7 5.2 1.6 131 0 1 5
8.8 4.5 1.1 98 0 1 5
8.9 4.6 1.2 80 0 1 5
8.9 5 1.4 85 0 1 5
