-19.4 -20 0 110 0 2 1
-18.8 -20 0 112 0 2 1
-18.8 -19.4 0 170 0 2 1
-18.1 -20 0 111 0 2 1
-18.1 -19.4 0 172 0 2 1
-18.1 -18.8 0 171 0 2 1
-17.5 -20 0 113 0 2 1
-17.5 -19.4 0 173 0 2 1
-17.5 -18.8 0 172 0 2 1
-17.5 -18.1 0 180 0 2 1
-16.8 -20 0 113 0 2 1
-16.8 -19.4 0 170 0 2 1
-16.8 -18.8 0 175 0 2 1
-16.8 -18.1 -0.1 175 0 2 1
-16.8 -17.5 -0.1 174 0 2 1
-16.2 -20 0 113 0 2 1
-16.2 -19.4 0 176 0 2 1
-16.2 -18.8 0 170 0 2 1
-16.2 -18.1 -0.1 175 0 2 1
-16.2 -17.5 -0.1 176 0 2 1
-15.5 -20 0 119 0 2 1
-15.5 -19.4 0 172 0 2 1
-15.5 -18.8 0 177 0 2 1
-15.5 -18.1 -0.1 174 0 2 1
-15.5 -17.5 -0.1 191 0 2 1
-14.9 -20 0 116 0 2 1
-14.9 -19.4 0 181 0 2 1
-14.9 -18.8 0 184 0 2 1
-14.9 -18.1 -0.1 179 0 2 1
-14.2 -19.4 -0.1 179 0 2 1
-14.2 -18.8 -0.1 180 0 2 1
-14.2 -18.1 0 179 0 2 1
-13.6 -18.1 0 185 0 2 1
-10.2 -14 0.6 66 0 2 3
-10 -13.7 0.9 66 0 2 3
-10 -11.7 0.6 192 0 2 1
-10 -11 0.7 190 0 2 1
-10 -10.4 0.7 186 0 2 1
-9.9 -13.6 1 60 0 2 3
-9.8 -13.5 0.7 60 0 2 3
-9.7 -13.4 1.2 65 0 2 3
-9.6 -13.2 1.2 61 0 2 3
-9.5 -13.3 0.5 61 0 2 3
-9.5 -13.1 1.3 68 0 2 3
-9.5 -13.1 1.4 65 0 2 3
-9.5 -13.1 1.5 70 0 2 3
-9.4 -11 0.7 191 0 2 1
-9.4 -10.4 0.8 185 0 2 1
-9.3 -12.8 1.4 60 0 2 3
-9.3 -12.8 1.5 63 0 2 3
-9.1 -12.8 0.6 58 0 2 3
-9.1 -12.5 1.6 58 0 2 3
-9 -12.5 1.1 60 0 2 3
-8.8 -9.1 0.9 194 0 2 1
-8.7 -12.3 0.6 62 0 2 1
-8.7 -12.3 1.2 58 0 2 3
-8.7 -12.2 1.7 67 0 2 3
-8.7 -11.7 0.7 174 0 2 1
-8.7 -11 0.7 179 0 2 1
-8.7 -10.4 0.8 191 0 2 1
-8.7 -9.7 0.8 187 0 2 1
-8.4 -12 0.9 59 0 2 3
-8.4 -11.9 1.4 58 0 2 3
-8.3 -11.8 1.9 68 0 2 3
-8.1 -11.6 0.9 60 0 2 3
-8.1 -11.6 1.4 58 0 2 3
-8.1 -11.5 1.9 56 0 2 3
-8.1 -10.4 0.8 182 0 2 1
-8.1 -9.7 0.8 193 0 2 1
-8.1 -9.1 0.9 196 0 2 1
-8.1 -8.4 0.9 201 0 2 1
-8 -11.6 2 66 0 2 3
-8 -11 0.7 121 0 2 1
-7.8 -11.3 0.9 57 0 2 3
-7.8 -11.3 1.9 58 0 2 3
-7.8 -11.2 1.4 57 0 2 3
-7.8 -11.2 1.8 53 0 2 3
-7.8 -11.1 1.9 55 0 2 3
-7.7 -11.4 2.1 144 0 2 3
-7.7 -11.2 2 126 0 2 3
-7.7 -11.1 1.9 56 0 2 3
-7.5 -11 1.1 56 0 2 3
-7.5 -8.4 0.9 200 0 2 1
-7.5 -7.8 0.9 200 0 2 1
-7.4 -10.9 1.6 54 0 2 3
-7.4 -10.4 0.8 67 0 2 1
-7.4 -9.7 0.8 129 0 2 1
-7.4 -9.1 0.9 182 0 2 1
-7.3 -10.8 2 142 0 2 3
-7.2 -10.7 1.3 57 0 2 3
-7.1 -10.6 1.7 53 0 2 3
-7.1 -10.5 2.1 64 0 2 3
-7 -10.4 2.1 64 0 2 3
-6.8 -10.4 1.2 53 0 2 3
-6.8 -9.7 0.8 57 0 2 1
-6.8 -9.1 0.8 58 0 2 1
-6.8 -8.4 0.9 198 0 2 1
-6.8 -7.8 0.9 202 0 2 1
-6.8 -7.1 0.9 198 0 2 1
-6.7 -10.2 1.7 52 0 2 3
-6.7 -10.2 2.2 60 0 2 3
-6.6 -10.1 0.8 52 0 2 3
-6.5 -10.1 1.2 52 0 2 3
-6.5 -10 1.8 54 0 2 3
-6.4 -10 1.5 51 0 2 3
-6.4 -9.9 2 49 0 2 3
-6.4 -9.9 2.3 68 0 2 3
-6.3 -10.1 0.8 58 0 2 3
-6.3 -9.9 1.8 49 0 2 3
-6.2 -10.1 1.2 48 0 2 3
-6.2 -7.8 0.8 201 0 2 1
-6.2 -7.1 0.8 202 0 2 1
-6.2 -6.5 0.8 198 0 2 1
-6.1 -10 1.5 49 0 2 3
-6.1 -9.8 2.4 58 0 2 3
-6.1 -9.7 0.8 55 0 2 1
-6.1 -9.1 0.8 197 0 2 1
-6.1 -8.4 0.8 201 0 2 1
-6 -10 1.2 50 0 2 3
-6 -9.8 2.1 48 0 2 3
-5.9 -20 0 128 0 2 1
-5.9 -19.4 0 194 0 2 1
-5.9 -18.8 0 195 0 2 1
-5.9 -10.1 0.9 50 0 2 3
-5.9 -9.8 1.9 48 0 2 3
-5.8 -9.8 1.7 48 0 2 3
-5.7 -9.7 2.5 94 0 2 3
-5.6 -9.9 1.4 49 0 2 3
-5.6 -9.7 2.2 45 0 2 3
-5.5 -9.9 1.2 51 0 2 3
-5.5 -9.8 2.5 156 0 2 3
-5.5 -9.7 1.9 46 0 2 3
-5.5 -9.1 0.8 194 0 2 1
-5.5 -8.4 0.8 196 0 2 1
-5.5 -7.8 0.8 200 0 2 1
-5.5 -7.1 0.8 204 0 2 1
-5.5 -6.5 0.8 199 0 2 1
-5.5 -5.9 0.7 201 0 2 1
-5.4 -9.7 0.7 197 0 2 1
-5.4 -9.7 1.8 44 0 2 3
-5.4 -9.7 2.2 47 0 2 3
-5.3 -10.1 2.7 145 0 2 3
-5.3 -9.8 2.1 133 0 2 3
-5.3 -9.8 2.5 105 0 2 3
-5.2 -17.5 0 199 0 2 1
-5.2 -16.8 0.1 197 0 2 1
-5.2 -10 0.9 50 0 2 3
-5.2 -9.7 1.7 94 0 2 3
-5.1 -10.2 2.7 166 0 2 3
-5.1 -10 2 154 0 2 3
-5.1 -10 2.4 153 0 2 3
-5 -17.4 0.2 185 0 2 2
-5 -17.3 0.2 165 0 2 2
-5 -17.2 0.1 174 0 2 2
-5 -10.2 2.3 160 0 2 3
-5 -10 1.6 153 0 2 3
-4.9 -17.6 0.2 148 0 2 2
-4.9 -17.5 0.2 186 0 2 2
-4.9 -17.1 0 105 0 2 2
-4.9 -10.5 2.8 148 0 2 3
-4.9 -10.4 2.6 153 0 2 3
-4.9 -10.3 1.9 150 0 2 3
-4.9 -9.9 1 107 0 2 3
-4.8 -17.2 0.2 178 0 2 2
-4.8 -17.1 0.1 71 0 2 2
-4.8 -17 0.1 63 0 2 2
-4.8 -10.3 1.6 151 0 2 3
-4.8 -9.7 0.7 200 0 2 1
-4.8 -9.1 0.7 198 0 2 1
-4.8 -8.4 0.7 195 0 2 1
-4.8 -7.8 0.7 194 0 2 1
-4.8 -7.1 0.7 201 0 2 1
-4.8 -6.5 0.7 204 0 2 1
-4.8 -5.9 0.7 198 0 2 1
-4.8 -5.2 0.6 191 0 2 1
-4.7 -17.6 0.3 180 0 2 2
-4.7 -10.5 2.1 164 0 2 3
-4.7 -10.4 1.9 154 0 2 3
-4.7 -10.3 1.3 177 0 2 3
-4.7 -10.3 1.4 148 0 2 3
-4.7 -10.2 0.9 170 0 2 3
-4.6 -20 0 136 0 2 1
-4.6 -19.4 0 192 0 2 1
-4.6 -18.8 0 192 0 2 1
-4.6 -17.6 0.3 195 0 2 2
-4.6 -17.3 0.3 203 0 2 2
-4.6 -17.2 0.2 173 0 2 2
-4.6 -17.1 0.1 55 0 2 2
-4.6 -17.1 0.2 156 0 2 2
-4.6 -16.8 0 201 0 2 1
-4.6 -16.2 0.1 192 0 2 1
-4.6 -15.5 0.1 207 0 2 1
-4.6 -14.9 0.2 206 0 2 1
-4.6 -11.2 3 167 0 2 3
-4.6 -10.4 1.3 155 0 2 3
-4.6 -10.4 1.5 143 0 2 3
-4.6 -10.3 1 180 0 2 3
-4.6 -10.3 1.1 161 0 2 3
-4.5 -17.6 0.3 110 0 2 2
-4.5 -17.3 0.2 205 0 2 2
-4.5 -17.1 0 159 0 2 2
-4.5 -17.1 0.2 155 0 2 2
-4.5 -11.1 2.1 188 0 2 3
-4.5 -10.6 1.2 170 0 2 3
-4.5 -10.5 0.6 179 0 2 3
-4.5 -10.5 1 177 0 2 3
-4.5 -10.5 1.3 80 0 2 3
-4.5 -10.5 1.4 130 0 2 3
-4.4 -17.5 0.3 180 0 2 2
-4.4 -17.4 0.3 136 0 2 2
-4.4 -17.2 0 149 0 2 2
-4.4 -17.2 0.2 194 0 2 2
-4.4 -17.1 0 131 0 2 2
-4.4 -17.1 0.2 125 0 2 2
-4.4 -11.9 3.1 154 0 2 3
-4.4 -10.9 1.2 180 0 2 3
-4.4 -10.8 1.1 179 0 2 3
-4.3 -17.4 0.1 196 0 2 2
-4.3 -17.3 0.1 204 0 2 2
-4.3 -12.1 3 181 0 2 3
-4.3 -12 3 112 0 2 3
-4.3 -11.1 1.1 181 0 2 3
-4.3 -11.1 1.4 172 0 2 3
-4.3 -11 1.4 127 0 2 3
-4.3 -10.7 0.7 181 0 2 3
-4.2 -11.9 2.2 191 0 2 3
-4.2 -11.8 2.3 190 0 2 3
-4.2 -11.4 1.2 164 0 2 3
-4.2 -11 0.7 183 0 2 3
-4.2 -7.8 0.7 196 0 2 1
-4.2 -7.1 0.7 202 0 2 1
-4.2 -6.5 0.6 204 0 2 1
-4.2 -5.9 0.6 197 0 2 1
-4.1 -12.7 1.5 192 0 2 3
-4.1 -12.2 2.4 161 0 2 3
-4.1 -12.1 2.2 199 0 2 3
-4.1 -11.7 1.4 186 0 2 3
-4.1 -11.5 1.3 156 0 2 3
-4.1 -11 0.5 202 0 2 1
-4.1 -10.4 0.6 203 0 2 1
-4.1 -9.7 0.6 204 0 2 1
-4.1 -9.1 0.6 197 0 2 1
-4.1 -8.4 0.6 198 0 2 1
-4 -15.5 0.1 201 0 2 1
-4 -14.9 0.2 209 0 2 1
-4 -14.2 0.2 205 0 2 1
-4 -13.6 0.3 203 0 2 1
-4 -13 0.3 203 0 2 1
-4 -12.3 1.8 174 0 2 3
-4 -11.9 1.4 188 0 2 3
-4 -11.8 1.3 181 0 2 3
-4 -11.7 0.8 189 0 2 3
-3.9 -20 0 136 0 2 1
-3.9 -19.4 0 193 0 2 1
-3.9 -18.8 0 191 0 2 1
-3.9 -18.1 0 196 0 2 1
-3.9 -17.5 0 203 0 2 1
-3.9 -16.8 0 195 0 2 1
-3.9 -16.2 0.1 198 0 2 1
-3.9 -12.5 0.4 188 0 2 3
-3.9 -12.4 1.1 176 0 2 3
-3.9 -12.2 1.6 170 0 2 3
-3.9 -12.1 1.4 147 0 2 3
-3.8 -12 0.9 169 0 2 3
-3.8 -3.9 0.5 155 0 2 2
-3.7 -12 0.4 192 0 2 3
-3.7 -3.9 0.9 160 0 2 2
-3.7 -3.8 0.7 185 0 2 2
-3.7 -3.8 0.8 143 0 2 2
-3.6 -3.9 1 155 0 2 2
-3.6 -3.8 0.8 88 0 2 2
-3.6 -3.8 0.9 157 0 2 2
-3.6 -3.7 0.5 190 0 2 2
-3.6 -3.7 0.6 57 0 2 2
-3.5 -9.1 0.6 197 0 2 1
-3.5 -8.4 0.6 196 0 2 1
-3.5 -7.8 0.6 197 0 2 1
-3.5 -7.1 0.6 199 0 2 1
-3.5 -6.5 0.6 204 0 2 1
-3.5 -5.9 0.6 203 0 2 1
-3.5 -5.2 0.5 198 0 2 1
-3.5 -4.1 1 199 0 2 2
-3.5 -4 1 191 0 2 2
-3.5 -3.9 0.9 191 0 2 2
-3.5 -3.9 1 163 0 2 2
-3.5 -3.8 0.8 126 0 2 2
-3.5 -3.7 0.5 187 0 2 2
-3.5 -3.7 0.8 115 0 2 2
-3.4 -13 0.3 203 0 2 1
-3.4 -12.3 0.4 201 0 2 1
-3.4 -11.7 0.4 198 0 2 1
-3.4 -11 0.5 202 0 2 1
-3.4 -10.4 0.5 203 0 2 1
-3.4 -9.7 0.5 197 0 2 1
-3.4 -4.2 0.9 199 0 2 2
-3.4 -4.1 0.9 201 0 2 2
-3.4 -4.1 1 196 0 2 2
-3.4 -4 0.9 205 0 2 2
-3.4 -3.8 0.8 180 0 2 2
-3.4 -3.8 0.9 170 0 2 2
-3.4 -3.7 0.5 81 0 2 2
-3.4 -3.7 0.7 93 0 2 2
-3.4 -3.7 0.8 122 0 2 2
-3.3 -20 0 134 0 2 1
-3.3 -19.4 0 195 0 2 1
-3.3 -18.8 0 198 0 2 1
-3.3 -18.1 0 198 0 2 1
-3.3 -17.5 0 199 0 2 1
-3.3 -16.8 0 194 0 2 1
-3.3 -16.2 0 197 0 2 1
-3.3 -15.5 0.1 200 0 2 1
-3.3 -14.9 0.1 208 0 2 1
-3.3 -14.2 0.2 208 0 2 1
-3.3 -13.6 0.2 206 0 2 1
-3.3 -4.2 0.9 204 0 2 2
-3.3 -4.1 0.8 201 0 2 2
-3.3 -4.1 0.9 204 0 2 2
-3.3 -3.9 0.8 197 0 2 2
-3.3 -3.8 0.7 196 0 2 2
-3.3 -3.8 0.8 168 0 2 2
-3.2 -4.2 0.8 202 0 2 2
-3.2 -4.1 0.7 206 0 2 2
-3.2 -4.1 0.8 202 0 2 2
-3.2 -4 0.8 202 0 2 2
-3.2 -3.9 0.7 199 0 2 2
-3.2 -3.8 0.7 183 0 2 2
-3.2 -3.7 0.6 146 0 2 2
-3.2 -3.7 0.7 113 0 2 2
-3.1 -4.4 0.5 199 0 2 2
-3.1 -4.4 0.6 196 0 2 2
-3.1 -4.3 0.6 210 0 2 2
-3.1 -4.3 0.7 197 0 2 2
-3.1 -4.2 0.7 193 0 2 2
-3.1 -4.2 0.8 206 0 2 2
-3.1 -4.1 0.7 206 0 2 2
-3.1 -3.9 0.6 199 0 2 2
-3.1 -3.8 0.5 158 0 2 2
-3.1 -3.8 0.6 184 0 2 2
-3.1 -3.7 0.5 180 0 2 2
-3 -4.1 0.5 195 0 2 2
-3 -4.1 0.6 197 0 2 2
-3 -4.1 0.7 198 0 2 2
-3 -4 0.5 176 0 2 2
-3 -4 0.6 184 0 2 2
-3 -4 0.7 194 0 2 2
-3 -3.9 0.5 180 0 2 2
-2.8 -10.4 0.4 201 0 2 1
-2.8 -9.7 0.5 201 0 2 1
-2.8 -9.1 0.5 197 0 2 1
-2.8 -8.4 0.5 200 0 2 1
-2.8 -7.8 0.5 202 0 2 1
-2.8 -7.1 0.5 197 0 2 1
-2.8 -6.5 0.5 203 0 2 1
-2.8 -5.9 0.5 204 0 2 1
-2.8 -5.2 0.5 202 0 2 1
-2.8 -4.6 0.4 196 0 2 1
-2.8 -3.9 0.4 193 0 2 1
-2.8 -3.3 0.3 192 0 2 1
-2.7 -14.9 0.1 206 0 2 1
-2.7 -14.2 0.1 212 0 2 1
-2.7 -13.6 0.2 208 0 2 1
-2.7 -13 0.3 203 0 2 1
-2.7 -12.3 0.3 203 0 2 1
-2.7 -11.7 0.3 203 0 2 1
-2.7 -11 0.4 201 0 2 1
-2.6 -20 0 134 0 2 1
-2.6 -19.4 0 197 0 2 1
-2.6 -18.8 0 196 0 2 1
-2.6 -18.1 0 195 0 2 1
-2.6 -17.5 0 197 0 2 1
-2.6 -16.8 0 195 0 2 1
-2.6 -16.2 0 199 0 2 1
-2.6 -15.5 0.1 203 0 2 1
-2.1 -12.3 0.2 206 0 2 1
-2.1 -11.7 0.3 204 0 2 1
-2.1 -11 0.3 201 0 2 1
-2.1 -10.4 0.4 200 0 2 1
-2.1 -9.7 0.4 198 0 2 1
-2.1 -9.1 0.4 197 0 2 1
-2.1 -8.4 0.4 201 0 2 1
-2.1 -7.8 0.4 199 0 2 1
-2.1 -7.1 0.4 198 0 2 1
-2.1 -6.5 0.4 202 0 2 1
-2.1 -5.9 0.4 205 0 2 1
-2.1 -5.2 0.4 198 0 2 1
-2.1 -4.6 0.4 199 0 2 1
-2.1 -3.9 0.3 196 0 2 1
-2.1 -3.3 0.3 193 0 2 1
-2.1 -2.6 0.2 191 0 2 1
-2 -20 0 133 0 2 1
-2 -19.4 0 198 0 2 1
-2 -18.8 0 197 0 2 1
-2 -18.1 0 201 0 2 1
-2 -17.5 0 195 0 2 1
-2 -16.8 0 199 0 2 1
-2 -16.2 0 201 0 2 1
-2 -15.5 0 204 0 2 1
-2 -14.9 0.1 207 0 2 1
-2 -14.2 0.1 211 0 2 1
-2 -13.6 0.2 213 0 2 1
-2 -13 0.2 207 0 2 1
-1.5 -9.1 0.4 198 0 2 1
-1.5 -8.4 0.4 197 0 2 1
-1.5 -7.8 0.4 194 0 2 1
-1.5 -7.1 0.4 202 0 2 1
-1.5 -6.5 0.4 200 0 2 1
-1.5 -5.9 0.4 201 0 2 1
-1.5 -5.2 0.4 203 0 2 1
-1.5 -4.6 0.3 201 0 2 1
-1.5 -3.9 0.3 197 0 2 1
-1.5 -3.3 0.2 193 0 2 1
-1.4 -14.2 0.1 207 0 2 1
-1.4 -13.6 0.1 208 0 2 1
-1.4 -13 0.2 206 0 2 1
-1.4 -12.3 0.2 206 0 2 1
-1.4 -11.7 0.2 206 0 2 1
-1.4 -11 0.3 198 0 2 1
-1.4 -10.4 0.3 201 0 2 1
-1.4 -9.7 0.4 200 0 2 1
-1.4 -2.6 0.2 71 0 2 1
-1.3 -20 0 133 0 2 1
-1.3 -19.4 0 198 0 2 1
-1.3 -18.8 0 198 0 2 1
-1.3 -18.1 0 198 0 2 1
-1.3 -17.5 0 199 0 2 1
-1.3 -16.8 0 197 0 2 1
-1.3 -16.2 0 199 0 2 1
-1.3 -15.5 0 202 0 2 1
-1.3 -14.9 0 200 0 2 1
-0.8 -14.2 0.2 164 0 2 3
-0.8 -11 0.2 203 0 2 1
-0.8 -10.4 0.3 196 0 2 1
-0.8 -9.7 0.3 198 0 2 1
-0.8 -9.1 0.3 200 0 2 1
-0.8 -8.4 0.4 200 0 2 1
-0.8 -7.8 0.4 201 0 2 1
-0.8 -7.1 0.4 204 0 2 1
-0.8 -6.5 0.4 198 0 2 1
-0.8 -5.9 0.4 200 0 2 1
-0.8 -5.2 0.3 204 0 2 1
-0.8 -4.6 0.3 201 0 2 1
-0.8 -3.9 0.2 199 0 2 1
-0.8 -3.3 0.2 191 0 2 1
-0.7 -13.6 0.2 60 0 2 3
-0.7 -13 0.1 208 0 2 1
-0.7 -12.3 0.2 207 0 2 1
-0.7 -11.7 0.2 204 0 2 1
-0.6 -13.6 0.3 61 0 2 3
-0.6 -13.4 0.2 56 0 2 3
-0.6 -13.4 0.4 55 0 2 3
-0.5 -14 0.6 66 0 2 3
-0.5 -13.8 0.6 66 0 2 3
-0.5 -13.4 0.5 64 0 2 3
-0.5 -13.3 0.6 55 0 2 3
-0.5 -13.2 0.4 56 0 2 3
-0.4 -14.5 1 76 0 2 3
-0.4 -14.4 0.8 69 0 2 3
-0.4 -14.3 0.9 63 0 2 3
-0.4 -13.7 0.8 145 0 2 3
-0.4 -13.3 0.7 121 0 2 3
-0.3 -14.5 1 77 0 2 3
-0.3 -14.3 1.1 141 0 2 3
-0.3 -14.1 1 109 0 2 3
-0.2 -14.6 1.1 120 0 2 3
-0.2 -14.5 1.2 109 0 2 3
-0.2 -12.6 0.2 50 0 2 3
0 -13.2 0.9 160 0 2 3
-0.1 -12.8 0.7 88 0 2 3
-0.1 -12.7 0.6 57 0 2 3
-0.1 -12.3 0.1 206 0 2 1
-0.1 -11.7 0.2 207 0 2 1
-0.1 -11 0.2 202 0 2 1
-0.1 -10.4 0.3 201 0 2 1
-0.1 -9.7 0.3 203 0 2 1
-0.1 -9.1 0.3 203 0 2 1
-0.1 -8.4 0.4 205 0 2 1
-0.1 -7.8 0.4 204 0 2 1
-0.1 -7.1 0.4 204 0 2 1
-0.1 -6.5 0.4 201 0 2 1
-0.1 -5.9 0.4 198 0 2 1
-0.1 -5.2 0.3 201 0 2 1
-0.1 -4.6 0.3 203 0 2 1
-0.1 -3.9 0.2 197 0 2 1
-0.1 -3.3 0.2 196 0 2 1
0.1 -14.7 1.5 133 0 2 3
0.2 -12.1 0.1 162 0 2 3
0.3 -12.2 0.8 107 0 2 3
0.4 -14.9 1.7 141 0 2 3
0.4 -11.9 0.5 55 0 2 3
0.5 -12.6 1.1 152 0 2 3
0.5 -11.6 0.3 53 0 2 3
0.5 -9.1 0.3 200 0 2 1
0.5 -8.4 0.4 201 0 2 1
0.5 -7.8 0.4 199 0 2 1
0.5 -7.1 0.4 199 0 2 1
0.5 -6.5 0.4 194 0 2 1
0.5 -5.9 0.4 201 0 2 1
0.5 -5.2 0.3 199 0 2 1
0.5 -4.6 0.3 202 0 2 1
0.5 -3.9 0.2 200 0 2 1
0.5 -3.3 0.2 201 0 2 1
0.6 -15 1.9 125 0 2 3
0.6 -12.8 1.2 146 0 2 3
0.6 -11 0.2 204 0 2 1
0.6 -10.4 0.3 203 0 2 1
0.6 -9.7 0.3 205 0 2 1
0.7 -15.1 2 146 0 2 3
0.7 -14.1 1.7 150 0 2 3
0.7 -11.7 0.9 82 0 2 3
0.8 -15.4 2.1 189 0 2 3
0.8 -15.2 2 115 0 2 3
0.8 -12.6 1.2 151 0 2 3
0.8 -11.7 1 156 0 2 3
0.8 -11.5 0.6 53 0 2 3
0.9 -15.5 2.1 190 0 2 3
0.9 -11.3 0.6 47 0 2 3
1 -15.6 2.1 189 0 2 3
1 -14.4 2 154 0 2 3
1 -13.4 1.7 143 0 2 3
1 -12.8 1.5 151 0 2 3
1 -11.3 1 121 0 2 3
1 -11.1 0.2 201 0 2 3
1.1 -11.1 1 59 0 2 3
1.2 -14.4 2.1 191 0 2 3
1.2 -11.2 1.1 114 0 2 3
1.2 -11 1 58 0 2 3
1.2 -10.4 0.3 201 0 2 1
1.2 -9.7 0.3 203 0 2 1
1.2 -9.1 0.4 203 0 2 1
1.2 -8.4 0.4 200 0 2 1
1.2 -7.8 0.4 199 0 2 1
1.2 -7.1 0.4 203 0 2 1
1.2 -6.5 0.4 199 0 2 1
1.2 -5.9 0.4 201 0 2 1
1.2 -5.2 0.3 201 0 2 1
1.2 -4.6 0.3 208 0 2 1
1.2 -3.9 0.3 207 0 2 1
1.2 -3.3 0.2 208 0 2 1
1.3 -15.7 2.5 64 0 2 3
1.3 -14.6 2.2 190 0 2 3
1.3 -11.1 1.1 62 0 2 3
1.3 -10.8 0.9 57 0 2 3
1.4 -14.7 2.2 198 0 2 3
1.4 -13.6 2 155 0 2 3
1.4 -12 1.5 151 0 2 3
1.4 -11.1 1.2 125 0 2 3
1.4 -10.9 1 60 0 2 3
1.4 -10.7 0.8 54 0 2 3
1.5 -13.1 1.9 153 0 2 3
1.5 -10.9 1.2 95 0 2 3
1.6 -15.7 2.9 93 0 2 3
1.6 -14.4 2.3 187 0 2 3
1.6 -12.6 1.8 149 0 2 3
1.6 -10.7 1 59 0 2 3
1.7 -15.2 2.8 121 0 2 3
1.7 -13.8 2.3 159 0 2 3
1.7 -10.7 1.3 115 0 2 3
1.8 -14.8 2.8 108 0 2 3
1.8 -13.3 2.2 151 0 2 3
1.8 -11.9 1.7 150 0 2 3
1.9 -15.8 3.2 82 0 2 3
1.9 -14.4 2.6 63 0 2 3
1.9 -13.5 2.3 156 0 2 3
1.9 -10.4 0.6 52 0 2 3
1.9 -9.7 0.4 178 0 2 1
1.9 -9.1 0.4 201 0 2 1
1.9 -8.4 0.4 209 0 2 1
1.9 -7.8 0.4 199 0 2 1
1.9 -7.1 0.4 195 0 2 1
1.9 -6.5 0.4 204 0 2 1
1.9 -5.9 0.4 202 0 2 1
1.9 -5.2 0.4 208 0 2 1
1.9 -4.6 0.3 215 0 2 1
1.9 -3.9 0.3 215 0 2 1
1.9 -3.3 0.2 218 0 2 1
1.9 -2.6 0.2 217 0 2 1
2 -14 2.6 109 0 2 3
2 -13 2.3 144 0 2 3
2 -12.8 2.1 160 0 2 3
2 -10.5 1.3 55 0 2 3
2.1 -13.2 2.4 125 0 2 3
2.1 -12.3 2.1 159 0 2 3
2.1 -10.5 1.5 100 0 2 3
2.1 -6.5 0.5 196 0 2 2
2.1 -6.5 0.6 55 0 2 2
2.1 -6.5 0.7 112 0 2 2
2.2 -16 3.5 112 0 2 3
2.2 -15 3.1 137 0 2 3
2.2 -11.8 2 153 0 2 3
2.2 -6.7 0.5 182 0 2 2
2.2 -6.7 0.7 198 0 2 2
2.2 -6.6 0.7 136 0 2 2
2.2 -6.5 0.7 131 0 2 2
2.2 -6.5 0.8 159 0 2 2
2.2 -6.4 0.7 73 0 2 2
2.3 -14.5 3 145 0 2 3
2.3 -6.9 0.7 197 0 2 2
2.3 -6.5 0.5 190 0 2 2
2.3 -6.5 0.9 175 0 2 2
2.3 -6.4 0.6 52 0 2 2
2.4 -12.3 2.3 147 0 2 3
2.4 -11.1 1.9 150 0 2 3
2.4 -6.9 0.9 213 0 2 2
2.4 -6.8 0.9 206 0 2 2
2.4 -6.5 0.9 223 0 2 2
2.4 -6.4 0.5 46 0 2 2
2.4 -6.4 0.9 191 0 2 2
2.5 -15.9 3.7 87 0 2 3
2.5 -13.7 2.9 135 0 2 3
2.5 -12.4 2.4 139 0 2 3
2.5 -11.8 2.2 143 0 2 3
2.5 -10.3 1.8 71 0 2 3
2.5 -9.7 0.4 91 0 2 1
2.5 -9.1 0.4 201 0 2 1
2.5 -8.4 0.5 207 0 2 1
2.5 -7.8 0.5 204 0 2 1
2.5 -6.9 0.9 184 0 2 2
2.5 -6.6 0.9 213 0 2 2
2.5 -6.3 0.6 48 0 2 2
2.5 -5.9 0.5 206 0 2 1
2.5 -5.2 0.4 212 0 2 1
2.5 -4.6 0.4 218 0 2 1
2.5 -3.9 0.3 223 0 2 1
2.5 -3.3 0.3 223 0 2 1
2.5 -2.6 0.2 214 0 2 1
2.6 -12.9 2.7 127 0 2 3
2.6 -11.2 2.1 144 0 2 3
2.6 -6.3 0.9 128 0 2 2
2.7 -15.8 3.9 101 0 2 3
2.7 -14.6 3.4 139 0 2 3
2.7 -14.3 3.3 148 0 2 3
2.7 -6.3 0.7 52 0 2 2
2.7 -6.2 0.5 52 0 2 2
2.8 -15.4 3.8 119 0 2 3
2.8 -10.5 2 144 0 2 3
2.8 -10.2 1.7 75 0 2 3
2.8 -6.9 0.9 178 0 2 2
2.8 -6.3 0.9 211 0 2 2
2.8 -6.2 0.7 51 0 2 2
2.9 -13.5 3.2 145 0 2 3
2.9 -12.2 2.6 133 0 2 3
2.9 -11.7 2.5 141 0 2 3
2.9 -11.2 2.3 146 0 2 3
2.9 -10.4 2 131 0 2 3
2.9 -10.1 1.7 53 0 2 3
2.9 -6.2 0.9 201 0 2 2
3 -14.8 3.7 122 0 2 3
3 -10.6 2.2 139 0 2 3
3 -10 1.7 173 0 2 3
3 -9.9 1.3 56 0 2 3
3 -6.8 0.9 218 0 2 2
3 -6.6 0.9 217 0 2 2
3 -6.5 0.9 225 0 2 2
3 -6.4 0.9 228 0 2 2
3 -6.2 0.7 52 0 2 2
3.1 -15.7 4.2 107 0 2 3
3.1 -15.4 4 113 0 2 3
3.1 -13.7 3.4 147 0 2 3
3.1 -11.2 2.5 134 0 2 3
3.1 -10.6 2.2 116 0 2 3
3.1 -10.2 2 127 0 2 3
3.1 -6.8 0.9 214 0 2 2
3.1 -6.1 0.5 211 0 2 2
3.1 -6.1 0.8 182 0 2 2
3.2 -15.6 4.2 112 0 2 3
3.2 -12.7 3.1 139 0 2 3
3.2 -10.7 2.3 103 0 2 3
3.2 -9.9 1.6 198 0 2 3
3.2 -9.8 1.2 59 0 2 3
3.2 -9.6 0.6 52 0 2 3
3.2 -6.8 0.9 213 0 2 2
3.2 -6.4 0.9 226 0 2 2
3.2 -6.1 0.6 50 0 2 2
3.2 -5.9 0.5 214 0 2 1
3.2 -5.2 0.5 218 0 2 1
3.2 -4.6 0.5 225 0 2 1
3.2 -3.9 0.4 226 0 2 1
3.2 -3.3 0.4 222 0 2 1
3.3 -13.9 3.6 136 0 2 3
3.3 -11.4 2.7 134 0 2 3
3.3 -10.7 2.5 133 0 2 3
3.3 -10.6 2.4 120 0 2 3
3.3 -10.5 2.2 123 0 2 3
3.3 -9.8 1.5 219 0 2 3
3.3 -6.1 0.6 50 0 2 2
3.3 -6.1 0.7 49 0 2 2
3.3 -6.1 0.8 214 0 2 2
3.4 -15.6 4.5 116 0 2 3
3.4 -14.9 4.1 117 0 2 3
3.4 -12.9 3.3 153 0 2 3
3.4 -11.9 3 136 0 2 3
3.4 -9.7 1.2 57 0 2 3
3.4 -6.1 0.6 195 0 2 2
3.4 -6.1 0.7 54 0 2 2
3.4 -6.1 0.8 198 0 2 2
3.5 -15.5 4.5 165 0 2 3
3.5 -15.1 4.3 112 0 2 3
3.5 -13.1 3.5 144 0 2 3
3.5 -10.9 2.7 147 0 2 3
3.5 -10.8 2.6 155 0 2 3
3.5 -9.8 1.4 190 0 2 3
3.5 -9.6 0.9 63 0 2 3
3.5 -6.6 0.8 223 0 2 2
3.5 -6.3 0.8 219 0 2 2
3.5 -6.2 0.8 162 0 2 2
3.6 -15.3 4.4 168 0 2 3
3.6 -15.1 4.4 114 0 2 3
3.6 -14.3 4 127 0 2 3
3.6 -12.1 3.2 151 0 2 3
3.6 -9.6 1.1 66 0 2 3
3.7 -15.4 4.5 112 0 2 3
3.7 -15.3 4.5 89 0 2 3
3.7 -13.3 3.7 133 0 2 3
3.7 -11.2 2.9 149 0 2 3
3.7 -9.7 1.2 172 0 2 3
3.7 -9.4 0.8 59 0 2 3
3.8 -15.4 4.6 108 0 2 3
3.8 -15.2 4.6 75 0 2 3
3.8 -14.2 4.2 120 0 2 3
3.8 -13.6 3.9 132 0 2 3
3.8 -12.5 3.5 149 0 2 3
3.8 -11.4 3.1 151 0 2 3
3.8 -10.7 1.8 230 0 2 3
3.8 -9.5 0.9 69 0 2 3
3.8 -6.5 0.6 215 0 2 1
3.8 -5.9 0.6 220 0 2 1
3.8 -5.2 0.6 227 0 2 1
3.8 -4.6 0.5 227 0 2 1
3.8 -3.9 0.5 225 0 2 1
3.9 -14.4 4.4 114 0 2 3
3.9 -14.3 4.3 116 0 2 3
3.9 -9.6 1.1 169 0 2 3
3.9 -9.4 0.8 77 0 2 3
3.9 -9.3 0.6 61 0 2 3
4 -13.6 4.1 123 0 2 3
4 -12.7 3.7 142 0 2 3
4 -11.6 3.3 157 0 2 3
4 -10.6 1.7 227 0 2 3
4 -9.7 1 198 0 2 3
4 -9.5 0.9 171 0 2 3
4.1 -14.6 4.6 83 0 2 3
4.1 -13.2 4 128 0 2 3
4.1 -13.1 3.9 112 0 2 3
4.1 -12.9 3.9 130 0 2 3
4.1 -9.4 0.7 63 0 2 3
4.2 -11.9 3.6 177 0 2 3
4.2 -10.5 1.6 209 0 2 3
4.2 -9.6 0.9 170 0 2 3
4.3 -13.6 4.4 158 0 2 3
4.3 -13.5 4.3 129 0 2 3
4.3 -11.9 3.6 170 0 2 3
4.3 -9.8 1 198 0 2 3
4.3 -9.6 0.9 161 0 2 3
4.4 -14 4.6 76 0 2 3
4.4 -13.8 4.4 173 0 2 3
4.4 -13.8 4.5 188 0 2 3
4.4 -13.7 4.5 207 0 2 3
4.4 -13.2 4.2 142 0 2 3
4.4 -12.9 4.2 87 0 2 3
4.4 -12.7 4.1 213 0 2 3
4.4 -12.5 3.9 192 0 2 3
4.4 -12.4 3.9 196 0 2 3
4.4 -12.3 3.9 186 0 2 3
4.5 -14 4.6 235 0 2 3
4.5 -13.8 4.5 229 0 2 3
4.5 -12.4 3.9 214 0 2 3
4.5 -12.3 3.9 208 0 2 3
4.5 -9.8 0.9 191 0 2 3
4.5 -9.1 0.6 214 0 2 1
4.5 -8.4 0.7 212 0 2 1
4.5 -7.8 0.7 215 0 2 1
4.5 -7.1 0.7 220 0 2 1
4.5 -6.5 0.7 223 0 2 1
4.5 -5.9 0.7 228 0 2 1
4.5 -5.2 0.6 229 0 2 1
4.5 -4.6 0.6 226 0 2 1
4.6 -14 4.5 183 0 2 3
4.7 -11.5 2 215 0 2 3
4.7 -11.3 2 229 0 2 3
4.8 -14.2 4.4 163 0 2 3
4.8 -11.8 2.3 156 0 2 3
4.8 -10 0.9 170 0 2 3
4.9 -11.8 2.3 154 0 2 3
4.9 -10.6 1.3 204 0 2 3
5 -13.5 4.2 203 0 2 3
5 -12.3 2.9 162 0 2 3
5.1 -12.1 2.6 154 0 2 3
5.1 -9.7 0.7 214 0 2 1
5.1 -9.1 0.7 216 0 2 1
5.1 -8.4 0.7 219 0 2 1
5.1 -7.8 0.8 221 0 2 1
5.1 -7.1 0.8 225 0 2 1
5.1 -6.5 0.8 229 0 2 1
5.1 -5.9 0.7 230 0 2 1
5.1 -5.2 0.7 227 0 2 1
5.2 -13.6 4.1 217 0 2 3
5.2 -12.7 3.6 150 0 2 3
5.2 -12.5 3.1 157 0 2 3
5.4 -13 3.9 99 0 2 3
5.4 -11.4 1.6 200 0 2 3
5.4 -10.7 1.1 179 0 2 3
5.5 -14.1 4.2 207 0 2 3
5.5 -12.2 2.1 235 0 2 3
5.5 -10.6 0.6 213 0 2 3
5.6 -12.2 2.1 223 0 2 3
5.8 -14.2 4.1 140 0 2 3
5.8 -10.4 0.7 213 0 2 1
5.8 -9.7 0.7 218 0 2 1
5.8 -9.1 0.8 223 0 2 1
5.8 -8.4 0.8 224 0 2 1
5.8 -7.8 0.8 225 0 2 1
5.8 -7.1 0.8 229 0 2 1
5.8 -6.5 0.8 229 0 2 1
5.8 -5.9 0.8 227 0 2 1
6.1 -11.5 1.3 159 0 2 3
6.2 -11.4 0.8 209 0 2 3
6.3 -12.2 1.8 162 0 2 3
6.4 -13.7 3.8 119 0 2 3
6.4 -13.6 3.4 139 0 2 3
6.4 -13.4 3 120 0 2 3
6.4 -13.3 2.7 101 0 2 3
6.4 -13.1 2.3 162 0 2 3
6.4 -13 2.3 201 0 2 3
6.4 -11.7 0.6 214 0 2 1
6.4 -11 0.6 217 0 2 1
6.4 -10.4 0.7 221 0 2 1
6.4 -9.7 0.8 223 0 2 1
6.4 -9.1 0.8 227 0 2 1
6.4 -8.4 0.9 229 0 2 1
6.4 -7.8 0.9 230 0 2 1
6.4 -7.1 0.9 230 0 2 1
6.4 -6.5 0.9 228 0 2 1
6.5 -13.7 3.3 154 0 2 3
6.5 -13.6 2.9 156 0 2 3
6.5 -13.4 2.6 154 0 2 3
6.5 -13.1 2.4 96 0 2 3
7 -12.3 0.5 217 0 2 1
7 -11.7 0.6 223 0 2 1
7 -11 0.7 223 0 2 1
7 -10.4 0.7 225 0 2 1
7 -9.7 0.8 228 0 2 1
7 -9.1 0.9 230 0 2 1
7 -8.4 0.9 232 0 2 1
7 -7.8 0.9 231 0 2 1
7 -7.1 0.9 227 0 2 1
7.7 -13.6 0.3 216 0 2 1
7.7 -13 0.4 218 0 2 1
7.7 -12.3 0.5 221 0 2 1
7.7 -11.7 0.6 225 0 2 1
7.7 -11 0.7 226 0 2 1
7.7 -10.4 0.8 229 0 2 1
7.7 -9.7 0.8 232 0 2 1
7.7 -9.1 0.9 233 0 2 1
7.7 -8.4 0.9 232 0 2 1
7.7 -7.8 0.9 228 0 2 1
8.3 -14.9 0.2 216 0 2 1
8.3 -14.2 0.3 216 0 2 1
8.3 -13.6 0.4 219 0 2 1
8.3 -13 0.4 222 0 2 1
8.3 -12.3 0.5 226 0 2 1
8.3 -11.7 0.6 226 0 2 1
8.3 -11 0.7 228 0 2 1
8.3 -10.4 0.8 231 0 2 1
8.3 -9.7 0.8 231 0 2 1
8.3 -9.1 0.9 233 0 2 1
8.3 -8.4 0.9 231 0 2 1
9 -16.2 0.1 218 0 2 1
9 -15.5 0.1 216 0 2 1
9 -14.2 0.3 221 0 2 1
9 -11 0.7 232 0 2 1
9 -10.4 0.8 234 0 2 1
9 -9.7 0.8 225 0 2 1
9 -9.1 0.9 231 0 2 1
9.6 -17.5 0 220 0 2 1
9.6 -16.8 0 221 0 2 1
9.6 -15.5 0.1 220 0 2 1
9.6 -10.4 0.7 233 0 2 1
10.3 -18.8 0 223 0 2 1
10.3 -18.1 0 222 0 2 1
10.3 -17.5 0 222 0 2 1
10.3 -16.8 0 222 0 2 1
10.3 -16.2 0 220 0 2 1
10.9 -20 0 152 0 2 1
10.9 -19.4 0 224 0 2 1
10.9 -18.8 0 224 0 2 1
10.9 -18.1 0 224 0 2 1
10.9 -17.5 0 223 0 2 1
10.9 -16.8 0 222 0 2 1
11.6 -20 0 163 0 2 1
11.6 -19.4 0 225 0 2 1
11.6 -18.8 0 226 0 2 1
11.6 -18.1 0 224 0 2 1
11.6 -17.5 0 226 0 2 1
12.2 -20 0 166 0 2 1
12.2 -19.4 0 226 0 2 1
12.2 -18.8 0 226 0 2 1
12.2 -18.1 0 226 0 2 1
12.2 -17.5 0 226 0 2 1
12.9 -20 0 169 0 2 1
12.9 -19.4 0 228 0 2 1
12.9 -18.8 0 228 0 2 1
12.9 -18.1 0 227 0 2 1
12.9 -17.5 0 227 0 2 1
13.5 -20 0 170 0 2 1
13.5 -19.4 0 229 0 2 1
13.5 -18.8 0 227 0 2 1
13.5 -18.1 0 226 0 2 1
13.5 -17.5 0 230 0 2 1
14.1 -20 0 170 0 2 1
14.1 -19.4 0 228 0 2 1
14.1 -18.8 0 228 0 2 1
14.1 -18.1 0 227 0 2 1
14.1 -17.5 0 231 0 2 1
14.8 -20 0 174 0 2 1
14.8 -19.4 0 228 0 2 1
14.8 -18.8 0 229 0 2 1
14.8 -18.1 0 228 0 2 1
14.8 -17.5 0 231 0 2 1
15.4 -20 0 174 0 2 1
15.4 -19.4 0 228 0 2 1
15.4 -18.8 0 228 0 2 1
15.4 -18.1 0 226 0 2 1
15.4 -17.5 0 227 0 2 1
16.1 -20 0 172 0 2 1
16.1 -19.4 0 226 0 2 1
16.1 -18.8 0 227 0 2 1
16.1 -18.1 0 225 0 2 1
16.1 -17.5 0 223 0 2 1
16.7 -20 0 168 0 2 1
16.7 -19.4 0 225 0 2 1
16.7 -18.8 0 226 0 2 1
16.7 -18.1 0 223 0 2 1
16.7 -17.5 0 222 0 2 1
17.4 -20 0 169 0 2 1
17.4 -19.4 0 225 0 2 1
17.4 -18.8 0 224 0 2 1
17.4 -18.1 0 224 0 2 1
17.4 -17.5 0 222 0 2 1
18 -20 0 168 0 2 1
18 -19.4 0 224 0 2 1
18 -18.8 0 223 0 2 1
18 -18.1 0 223 0 2 1
18.7 -20 0 164 0 2 1
18.7 -19.4 0 222 0 2 1
18.7 -18.8 0 220 0 2 1
19.3 -20 0 162 0 2 1
19.3 -19.4 0 218 0 2 1
20 -20 0 154 0 2 1
