-9.4 -10.1 2.8 84 0 2 3
-9.4 -9.9 2.7 100 0 2 3
-9.3 -9.6 2.6 73 0 2 3
-9.2 -10.5 2.9 121 0 2 3
-9.2 -10.3 2.8 140 0 2 3
-9.1 -10.9 3.1 101 0 2 3
-8.5 -9.4 2.5 109 0 2 3
-8.4 -10.1 2.7 129 0 2 3
-8.4 -9 1.2 98 0 2 3
-8.2 -8.3 0.1 113 0 2 1
-8 -11 3.1 94 0 2 3
-7.7 -9.2 2.4 106 0 2 3
-7.6 -8.8 1.1 96 0 2 3
-7.6 -8.3 0.1 109 0 2 1
-7.6 -7.6 0.2 119 0 2 1
-7.3 -10.2 2.7 138 0 2 3
-7.3 -9.2 2.4 95 0 2 3
-7.3 -8.7 0.9 90 0 2 3
-7 -9.2 2.4 110 0 2 3
-6.9 -11.1 3.1 85 0 2 3
-6.9 -9.2 2.3 106 0 2 3
-6.9 -8.7 0.9 71 0 2 3
-6.9 -8.3 0.1 115 0 2 1
-6.9 -7.6 0.1 103 0 2 1
-6.9 -7 0.2 98 0 2 1
-6.7 -9 2.1 114 0 2 3
-6.7 -8.2 0.3 47 0 2 3
-6.6 -10.1 2.7 140 0 2 3
-6.6 -9.2 2.4 103 0 2 3
-6.6 -8.6 1.8 110 0 2 3
-6.5 -8.8 1.9 127 0 2 3
-6.4 -11.3 3.1 77 0 2 3
-6.4 -9 2.2 126 0 2 3
-6.4 -8.8 1.8 154 0 2 3
-6.4 -8.6 1.7 164 0 2 3
-6.4 -8.4 1.6 141 0 2 3
-6.4 -8.1 1.3 98 0 2 3
-6.4 -8 0.7 66 0 2 3
-6.3 -9.2 2.4 119 0 2 3
-6.3 -9 2 138 0 2 3
-6.3 -8.7 1.7 161 0 2 3
-6.3 -8.5 1.6 156 0 2 3
-6.3 -8.3 1.5 139 0 2 3
-6.3 -8.2 1.4 131 0 2 3
-6.2 -8.1 0.7 100 0 2 3
-6.2 -7.6 0.1 110 0 2 1
-6.2 -7 0.2 99 0 2 1
-6.2 -6.3 0.2 105 0 2 1
-6.1 -10.4 2.7 105 0 2 3
-6.1 -8.5 1.5 140 0 2 3
-6.1 -8.3 1.4 133 0 2 3
-6.1 -8.2 1.3 111 0 2 3
-5.9 -9.7 2.5 136 0 2 3
-5.9 -9.5 2.2 153 0 2 3
-5.9 -8.3 1.4 113 0 2 3
-5.8 -11.6 3.1 108 0 2 3
-5.7 -9.2 1.6 136 0 2 3
-5.6 -12.5 3.1 112 0 2 3
-5.6 -10.9 2.9 136 0 2 3
-5.6 -7.6 0.1 129 0 2 1
-5.6 -7 0.2 127 0 2 1
-5.6 -6.3 0.2 110 0 2 1
-5.5 -13.4 3.1 119 0 2 3
-5.5 -11.9 2.9 153 0 2 3
-5.5 -8.8 1.6 135 0 2 3
-5.5 -5.7 0.3 109 0 2 1
-5.4 -14 2.8 141 0 2 3
-5.4 -13.6 3 139 0 2 3
-5.4 -10.2 2.6 131 0 2 3
-5.3 -14 2.3 143 0 2 3
-5.3 -13.7 3 155 0 2 3
-5.3 -13.3 2.9 141 0 2 3
-5.3 -12.8 2.9 122 0 2 3
-5.3 -11.2 2.7 152 0 2 3
-5.3 -9.9 2.1 148 0 2 3
-5.3 -8.5 1.4 122 0 2 3
-5.3 -8.4 1.3 107 0 2 3
-5.2 -13.8 2.5 124 0 2 3
-5.2 -13.4 2.8 133 0 2 3
-5.2 -12.2 2.8 152 0 2 3
-5.1 -13.8 2 116 0 2 3
-5.1 -13.5 2.3 119 0 2 3
-5.1 -13.2 2.6 143 0 2 3
-5.1 -12.7 2.7 131 0 2 3
-5.1 -11.6 2.1 159 0 2 3
-5.1 -9.7 1.5 137 0 2 3
-5.1 -8.4 0.7 98 0 2 3
-5 -20 0 89 0 2 1
-5 -12.6 2.2 160 0 2 3
-4.9 -13.6 1.8 140 0 2 3
-4.9 -13.5 1.7 134 0 2 3
-4.9 -13.2 2.1 126 0 2 3
-4.9 -13.1 2.1 131 0 2 3
-4.9 -11.4 1.6 145 0 2 3
-4.9 -9.2 1.5 140 0 2 3
-4.9 -8.3 0.1 137 0 2 1
-4.9 -7.6 0.1 144 0 2 1
-4.9 -7 0.2 113 0 2 1
-4.9 -6.3 0.2 101 0 2 1
-4.9 -5.7 0.3 100 0 2 1
-4.9 -5 0.4 104 0 2 1
-4.8 -14.5 1.7 95 0 2 3
-4.8 -13.3 1.6 148 0 2 3
-4.8 -8.8 1.4 134 0 2 3
-4.8 -8.7 1.3 137 0 2 3
-4.8 -8.6 1.2 138 0 2 3
-4.7 -13.2 1.6 135 0 2 3
-4.7 -13.1 1.6 133 0 2 3
-4.6 -9.7 1.4 141 0 2 3
-4.6 -8.5 0.6 166 0 2 3
-4.5 -13.9 1.6 133 0 2 3
-4.5 -8.9 1.2 158 0 2 3
-4.4 -11.4 1.4 143 0 2 3
-4.4 -9.2 1.3 146 0 2 3
-4.4 -9 1.3 155 0 2 3
-4.3 -20 0 86 0 2 1
-4.3 -19.4 0 130 0 2 1
-4.3 -18.7 0 124 0 2 1
-4.3 -18.1 0 108 0 2 1
-4.3 -17.4 0 126 0 2 1
-4.3 -14.4 1.6 84 0 2 3
-4.3 -8.3 0.1 135 0 2 1
-4.3 -7.6 0.1 122 0 2 1
-4.3 -7 0.2 118 0 2 1
-4.3 -6.3 0.2 121 0 2 1
-4.2 -12.8 1.5 149 0 2 3
-4.2 -12.6 1.5 155 0 2 3
-4.2 -8.8 0.6 165 0 2 3
-4.2 -5.7 0.3 113 0 2 1
-4.2 -5 0.4 111 0 2 1
-4.2 -4.4 0.4 117 0 2 1
-4.1 -9.4 1.2 150 0 2 3
-4.1 -9.2 1.2 149 0 2 3
-4 -13.9 1.5 108 0 2 3
-4 -9.6 1.3 141 0 2 3
-4 -9 0.4 157 0 2 3
-3.9 -13.3 1.5 152 0 2 3
-3.9 -9.2 0.5 148 0 2 3
-3.8 -13.5 1.4 120 0 2 3
-3.8 -10.9 1.3 143 0 2 3
-3.8 -10.7 1.2 142 0 2 3
-3.8 -9.5 0.5 132 0 2 3
-3.7 -20 0 86 0 2 1
-3.7 -19.4 0 119 0 2 1
-3.7 -18.7 0 123 0 2 1
-3.7 -18.1 0 102 0 2 1
-3.7 -17.4 0 114 0 2 1
-3.7 -16.8 0 107 0 2 1
-3.7 -16.1 0 113 0 2 1
-3.7 -15.5 0 84 0 2 1
-3.7 -12.8 1.4 141 0 2 3
-3.6 -13.3 1.3 118 0 2 3
-3.6 -12.2 1.3 146 0 2 3
-3.6 -12 1.2 144 0 2 3
-3.6 -10.5 0.4 135 0 2 3
-3.6 -7 0.2 149 0 2 1
-3.6 -6.3 0.2 94 0 2 1
-3.6 -5.7 0.3 112 0 2 1
-3.6 -5 0.3 112 0 2 1
-3.6 -4.4 0.4 127 0 2 1
-3.6 -3.7 0.4 127 0 2 1
-3.5 -12.7 1.2 137 0 2 3
-3.5 -12.5 1.1 137 0 2 3
-3.5 -11.7 1.2 150 0 2 3
-3.4 -13.7 0.3 111 0 2 3
-3.4 -13.2 1.1 111 0 2 3
-3.4 -13.1 0.9 125 0 2 3
-3.4 -12.3 1 135 0 2 3
-3.3 -13.6 0.1 131 0 2 3
-3.3 -13.4 0 134 0 2 3
-3.3 -13 0.7 134 0 2 3
-3.3 -11.8 0.3 132 0 2 3
-3.2 -13 0 133 0 2 3
-3.2 -12.5 0.1 131 0 2 3
-3.2 -6 0.3 52 0 2 2
-3.2 -5.8 0.3 111 0 2 2
-3.1 -5.8 0.3 83 0 2 2
-3 -20 0 87 0 2 1
-3 -19.4 0 124 0 2 1
-3 -18.7 0 125 0 2 1
-3 -18.1 0 106 0 2 1
-3 -17.4 0 120 0 2 1
-3 -16.8 0 113 0 2 1
-3 -16.1 0 120 0 2 1
-3 -15.5 0 85 0 2 1
-3 -14.8 0 105 0 2 1
-3 -14.1 0 109 0 2 1
-3 -13.5 0 110 0 2 1
-3 -12.8 0 108 0 2 1
-3 -12.2 0 95 0 2 1
-3 -11.5 0 118 0 2 1
-3 -10.9 0 139 0 2 1
-3 -10.2 0 127 0 2 1
-3 -9.6 0 120 0 2 1
-3 -8.9 0 134 0 2 1
-3 -8.3 0 144 0 2 1
-3 -6 0.6 96 0 2 2
-3 -5.8 0.4 78 0 2 2
-3 -5.8 0.5 69 0 2 2
-3 -5.7 0.4 53 0 2 2
-2.9 -6 0.7 140 0 2 2
-2.9 -5.9 0.6 138 0 2 2
-2.9 -5.8 0.6 104 0 2 2
-2.9 -5.7 0.5 56 0 2 2
-2.9 -5 0.3 111 0 2 1
-2.9 -4.4 0.3 124 0 2 1
-2.9 -3.7 0.4 129 0 2 1
-2.9 -3.1 0.4 122 0 2 1
-2.8 -5.7 0.6 84 0 2 2
-2.7 -6.3 0.6 126 0 2 2
-2.7 -5.8 0.7 119 0 2 2
-2.7 -5.5 0.5 121 0 2 2
-2.7 -5.4 0.3 62 0 2 2
-2.7 -5.4 0.4 75 0 2 2
-2.6 -6.3 0.6 134 0 2 2
-2.6 -5.9 0.7 146 0 2 2
-2.6 -5.7 0.6 114 0 2 2
-2.6 -5.6 0.6 109 0 2 2
-2.6 -5.5 0.4 143 0 2 2
-2.6 -5.5 0.5 120 0 2 2
-2.6 -5.5 0.6 126 0 2 2
-2.5 -6.2 0.6 118 0 2 2
-2.5 -5.9 0.7 124 0 2 2
-2.5 -5.6 0.5 99 0 2 2
-2.5 -5.5 0.3 108 0 2 2
-2.4 -6.1 0.6 138 0 2 2
-2.4 -5.9 0.6 127 0 2 2
-2.4 -5.8 0.6 125 0 2 2
-2.4 -5.6 0.4 123 0 2 2
-2.3 -20 0 86 0 2 1
-2.3 -19.4 0 116 0 2 1
-2.3 -18.7 0 121 0 2 1
-2.3 -18.1 0 115 0 2 1
-2.3 -17.4 0 115 0 2 1
-2.3 -16.8 0 123 0 2 1
-2.3 -16.1 0 114 0 2 1
-2.3 -15.5 0 100 0 2 1
-2.3 -14.8 0 108 0 2 1
-2.3 -14.1 0 111 0 2 1
-2.3 -13.5 0 113 0 2 1
-2.3 -12.8 0 109 0 2 1
-2.3 -12.2 0 104 0 2 1
-2.3 -11.5 0 111 0 2 1
-2.3 -10.9 0 142 0 2 1
-2.3 -10.2 0 139 0 2 1
-2.3 -9.6 0 139 0 2 1
-2.3 -8.9 0 136 0 2 1
-2.3 -8.3 0 121 0 2 1
-2.3 -7.6 0.1 132 0 2 1
-2.3 -7 0.1 121 0 2 1
-2.3 -6.3 0.2 112 0 2 1
-2.3 -6.2 0.2 114 0 2 2
-2.3 -6.1 0.5 131 0 2 2
-2.3 -6 0.5 125 0 2 2
-2.3 -6 0.6 135 0 2 2
-2.3 -5.9 0.5 142 0 2 2
-2.3 -5.9 0.6 126 0 2 2
-2.3 -5.8 0.6 145 0 2 2
-2.3 -5.7 0.2 107 0 2 1
-2.3 -5.7 0.6 152 0 2 2
-2.3 -5 0.3 109 0 2 1
-2.3 -4.4 0.3 118 0 2 1
-2.3 -3.7 0.3 137 0 2 1
-2.3 -3.1 0.4 120 0 2 1
-2.2 -6.1 0.3 138 0 2 2
-2.2 -5.9 0.3 97 0 2 2
-2.2 -5.7 0.2 100 0 2 2
-2.2 -5.7 0.3 97 0 2 2
-1.7 -20 0 84 0 2 1
-1.7 -19.4 0 122 0 2 1
-1.7 -18.7 0 120 0 2 1
-1.7 -18.1 0 109 0 2 1
-1.7 -17.4 0 106 0 2 1
-1.7 -16.8 0 88 0 2 1
-1.7 -16.1 0 101 0 2 1
-1.7 -15.5 0 104 0 2 1
-1.7 -14.8 0 107 0 2 1
-1.7 -14.1 0 117 0 2 1
-1.7 -13.5 0 121 0 2 1
-1.7 -12.8 0 119 0 2 1
-1.7 -12.2 0 136 0 2 1
-1.7 -11.5 0 125 0 2 1
-1.7 -10.9 0 133 0 2 1
-1.7 -10.2 0 149 0 2 1
-1.7 -9.6 0 118 0 2 1
-1.7 -8.9 0 133 0 2 1
-1.7 -8.3 0 132 0 2 1
-1.7 -7.6 0 136 0 2 1
-1.7 -7 0.1 132 0 2 1
-1.7 -6.3 0.1 117 0 2 1
-1.6 -5.7 0.2 116 0 2 1
-1.6 -5 0.2 121 0 2 1
-1.6 -4.4 0.3 164 0 2 1
-1.6 -3.7 0.3 157 0 2 1
-1.6 -3 0.3 95 0 2 1
-1 -20 0 85 0 2 1
-1 -19.4 0 122 0 2 1
-1 -18.7 0 120 0 2 1
-1 -18.1 0 104 0 2 1
-1 -17.4 0 99 0 2 1
-1 -16.8 0 104 0 2 1
-1 -16.1 0 106 0 2 1
-1 -15.5 0 103 0 2 1
-1 -14.8 0 137 0 2 1
-1 -14.1 0 130 0 2 1
-1 -13.5 0 125 0 2 1
-1 -12.8 0 138 0 2 1
-1 -12.2 0 146 0 2 1
-1 -11.5 0 135 0 2 1
-1 -10.9 0 132 0 2 1
-1 -10.2 0 123 0 2 1
-1 -9.6 0 128 0 2 1
-1 -8.9 0 135 0 2 1
-1 -8.3 0 132 0 2 1
-1 -7.6 0 136 0 2 1
-1 -6.9 0.1 129 0 2 1
-1 -6.3 0.1 121 0 2 1
-1 -5.6 0.1 131 0 2 1
-1 -5 0.2 132 0 2 1
-1 -4.3 0.2 109 0 2 1
-1 -3.7 0.2 144 0 2 1
-1 -3 0.2 122 0 2 1
-0.8 -11.3 0 118 0 2 2
-0.8 -11.2 0.1 79 0 2 2
-0.8 -11.1 0.1 88 0 2 2
-0.8 -11 0 49 0 2 2
-0.8 -11 0.1 86 0 2 2
-0.7 -11.1 0.1 127 0 2 2
-0.7 -11 0 101 0 2 2
-0.7 -10.9 0 114 0 2 2
-0.6 -11.1 0.2 117 0 2 2
-0.6 -10.9 0 82 0 2 2
-0.5 -11.1 0.2 117 0 2 2
-0.5 -11 0.1 111 0 2 2
-0.4 -20 0 85 0 2 1
-0.4 -19.4 0 116 0 2 1
-0.4 -18.7 0 102 0 2 1
-0.4 -18.1 0 104 0 2 1
-0.4 -17.4 0 99 0 2 1
-0.4 -16.8 0 107 0 2 1
-0.4 -16.1 0 125 0 2 1
-0.4 -15.5 0 121 0 2 1
-0.4 -14.8 0 124 0 2 1
-0.4 -14.1 0 124 0 2 1
-0.4 -11.2 0.3 118 0 2 2
-0.4 -11.1 0.3 131 0 2 2
-0.4 -10.9 0 109 0 2 2
-0.4 -10.2 0 113 0 2 1
-0.4 -9.6 0 118 0 2 1
-0.4 -8.9 0 131 0 2 1
-0.4 -8.2 0 136 0 2 1
-0.4 -7.6 0 135 0 2 1
-0.4 -6.9 0 124 0 2 1
-0.4 -6.3 0.1 124 0 2 1
-0.3 -11.2 0.3 122 0 2 2
-0.3 -5.6 0.1 146 0 2 1
-0.3 -5 0.1 144 0 2 1
-0.3 -4.3 0.1 143 0 2 1
-0.3 -3.7 0.2 127 0 2 1
-0.3 -3 0.2 129 0 2 1
-0.2 -11.4 0.3 128 0 2 2
-0.2 -11.2 0.3 134 0 2 2
-0.2 -11.1 0.3 133 0 2 2
-0.2 -11 0 128 0 2 2
-0.2 -11 0.1 115 0 2 2
-0.2 -11 0.2 112 0 2 2
-0.2 -11 0.3 127 0 2 2
0 -11.5 0.2 145 0 2 2
0 -11.5 0.3 148 0 2 2
0 -11.3 0.2 151 0 2 2
0 -11.3 0.3 154 0 2 2
0 -11.2 0.2 143 0 2 2
-0.1 -11.2 0.3 158 0 2 2
0 -11.1 0 151 0 2 2
0 -11.1 0.1 136 0 2 2
0 -11.1 0.2 134 0 2 2
-0.1 -11.1 0.3 146 0 2 2
0 -11 0 148 0 2 2
0 -11 0.1 153 0 2 2
-0.1 -11 0.2 127 0 2 2
0.1 -11.5 0 138 0 2 2
0.1 -11.5 0.1 117 0 2 2
0.3 -20 0 84 0 2 1
0.3 -19.4 0 107 0 2 1
0.3 -18.7 0 111 0 2 1
0.3 -18.1 0 115 0 2 1
0.3 -17.4 0 94 0 2 1
0.3 -16.8 0 105 0 2 1
0.3 -16.1 0 128 0 2 1
0.3 -15.5 0 120 0 2 1
0.3 -14.8 0 119 0 2 1
0.3 -14.1 0 119 0 2 1
0.3 -13.5 0 125 0 2 1
0.3 -12.8 0 128 0 2 1
0.3 -12.2 0 112 0 2 1
0.3 -11.5 0 129 0 2 1
0.3 -10.9 0 103 0 2 1
0.3 -10.2 0 127 0 2 1
0.3 -9.6 0 123 0 2 1
0.3 -8.9 0 129 0 2 1
0.3 -8.2 0 131 0 2 1
0.3 -7.6 0 132 0 2 1
0.3 -6.9 0 130 0 2 1
0.3 -6.3 0 135 0 2 1
0.3 -5.6 0 154 0 2 1
0.3 -5 0.1 129 0 2 1
0.3 -4.3 0.1 153 0 2 1
0.3 -3.7 0.1 149 0 2 1
0.3 -3 0.2 135 0 2 1
0.9 -20 0 80 0 2 1
0.9 -19.4 0 115 0 2 1
0.9 -18.7 0 112 0 2 1
0.9 -18.1 0 99 0 2 1
0.9 -17.4 0 111 0 2 1
0.9 -16.8 0 107 0 2 1
0.9 -16.1 0 121 0 2 1
0.9 -15.5 0 123 0 2 1
0.9 -14.8 0 125 0 2 1
0.9 -14.1 0 102 0 2 1
0.9 -13.5 0 111 0 2 1
0.9 -12.8 0 126 0 2 1
0.9 -12.2 0 116 0 2 1
0.9 -11.5 0 127 0 2 1
0.9 -10.9 0 124 0 2 1
0.9 -10.2 0 150 0 2 1
0.9 -9.5 0 112 0 2 1
0.9 -8.9 0 124 0 2 1
0.9 -8.2 0 131 0 2 1
0.9 -7.6 0 128 0 2 1
0.9 -6.9 0 140 0 2 1
0.9 -6.3 0 135 0 2 1
0.9 -5.6 0 142 0 2 1
0.9 -5 0 143 0 2 1
0.9 -4.3 0.1 136 0 2 1
0.9 -3.7 0.1 141 0 2 1
0.9 -3 0.1 144 0 2 1
1.6 -20 0 84 0 2 1
1.6 -19.4 0 131 0 2 1
1.6 -18.7 0 123 0 2 1
1.6 -18.1 0 112 0 2 1
1.6 -17.4 0 116 0 2 1
1.6 -16.8 0 105 0 2 1
1.6 -16.1 0 111 0 2 1
1.6 -15.5 0 116 0 2 1
1.6 -14.8 0 120 0 2 1
1.6 -14.1 0 123 0 2 1
1.6 -13.5 0 141 0 2 1
1.6 -12.8 0 124 0 2 1
1.6 -12.2 0 136 0 2 1
1.6 -11.5 0 138 0 2 1
1.6 -10.8 0 153 0 2 1
1.6 -10.2 0 153 0 2 1
1.6 -9.5 0 148 0 2 1
1.6 -8.9 0 128 0 2 1
1.6 -8.2 0 138 0 2 1
1.6 -7.6 0 141 0 2 1
1.6 -6.9 0 133 0 2 1
1.6 -6.3 0 133 0 2 1
1.6 -5.6 0 140 0 2 1
1.6 -5 0 129 0 2 1
1.6 -4.3 0 137 0 2 1
1.6 -3.7 0.1 143 0 2 1
1.6 -3 0.1 149 0 2 1
2.2 -20 0 83 0 2 1
2.2 -19.4 0 129 0 2 1
2.2 -18.7 0 122 0 2 1
2.2 -18.1 0 111 0 2 1
2.2 -17.4 0 111 0 2 1
2.2 -16.8 0 109 0 2 1
2.2 -16.1 0 105 0 2 1
2.2 -15.5 0 123 0 2 1
2.2 -14.8 0 133 0 2 1
2.2 -14.1 0 132 0 2 1
2.2 -13.5 0 109 0 2 1
2.2 -12.8 0 137 0 2 1
2.2 -12.2 0 129 0 2 1
2.2 -11.5 0.1 142 0 2 1
2.2 -10.8 0 143 0 2 2
2.2 -10.8 0.2 96 0 2 2
2.2 -10.8 0.3 80 0 2 2
2.2 -10.6 0.2 42 0 2 2
2.2 -10.6 0.3 50 0 2 2
2.2 -10.5 0 115 0 2 2
2.2 -10.2 0.1 128 0 2 1
2.2 -9.5 0.1 122 0 2 1
2.2 -8.9 0.1 130 0 2 1
2.2 -8.2 0 134 0 2 1
2.2 -7.6 0 139 0 2 1
2.2 -6.9 0 134 0 2 1
2.2 -6.3 0 128 0 2 1
2.2 -5.6 0 135 0 2 1
2.2 -5 0 140 0 2 1
2.2 -4.3 0 142 0 2 1
2.2 -3.7 0.1 139 0 2 1
2.2 -3 0.1 126 0 2 1
2.3 -10.8 0.4 90 0 2 2
2.3 -10.7 0.4 97 0 2 2
2.3 -10.5 0.3 100 0 2 2
2.3 -10.4 0.3 91 0 2 2
2.4 -10.7 0.5 79 0 2 2
2.4 -10.6 0.4 120 0 2 2
2.4 -10.5 0.3 134 0 2 2
2.4 -10.5 0.4 133 0 2 2
2.4 -10.4 0.3 129 0 2 2
2.5 -10.7 0.4 140 0 2 2
2.5 -10.7 0.5 130 0 2 2
2.5 -10.5 0.3 145 0 2 2
2.5 -10.4 0.3 127 0 2 2
2.5 -10.3 0.2 116 0 2 2
2.5 -10.2 0.1 57 0 2 2
2.5 -10.2 0.2 117 0 2 2
2.6 -10.8 0.5 150 0 2 2
2.6 -10.6 0.4 134 0 2 2
2.6 -10.5 0.3 131 0 2 2
2.6 -10.2 0.1 139 0 2 2
2.6 -10.2 0.2 115 0 2 2
2.7 -10.8 0.5 145 0 2 2
2.7 -10.7 0.4 134 0 2 2
2.7 -10.7 0.5 129 0 2 2
2.7 -10.5 0.3 128 0 2 2
2.7 -10.4 0.2 137 0 2 2
2.8 -12.8 0.2 45 0 2 2
2.8 -10.8 0.4 134 0 2 2
2.8 -10.8 0.5 126 0 2 2
2.8 -10.6 0.4 132 0 2 2
2.8 -10.5 0.3 140 0 2 2
2.8 -10.3 0.1 142 0 2 2
2.8 -10.3 0.2 150 0 2 2
2.9 -20 0 84 0 2 1
2.9 -19.4 0 130 0 2 1
2.9 -18.7 0 120 0 2 1
2.9 -18.1 0 106 0 2 1
2.9 -17.4 0 110 0 2 1
2.9 -16.8 0 110 0 2 1
2.9 -16.1 0 108 0 2 1
2.9 -15.4 0 123 0 2 1
2.9 -14.8 0 126 0 2 1
2.9 -14.1 0 127 0 2 1
2.9 -13.5 0.1 119 0 2 1
2.9 -13.3 0.1 107 0 2 2
2.9 -13.2 0.2 110 0 2 2
2.9 -12.8 0.3 67 0 2 2
2.9 -12.8 0.4 89 0 2 2
2.9 -12.8 0.5 81 0 2 2
2.9 -10.7 0.3 142 0 2 2
2.9 -10.7 0.4 130 0 2 2
2.9 -10.6 0.3 126 0 2 2
2.9 -10.4 0.2 144 0 2 2
2.9 -10.2 0.1 152 0 2 1
2.9 -9.5 0.1 119 0 2 1
2.9 -8.9 0.1 138 0 2 1
2.9 -8.2 0.1 137 0 2 1
2.9 -7.6 0.1 128 0 2 1
2.9 -6.9 0.1 132 0 2 1
2.9 -6.3 0 136 0 2 1
2.9 -5.6 0 141 0 2 1
2.9 -5 0 132 0 2 1
2.9 -4.3 0.1 131 0 2 1
2.9 -3.7 0.1 135 0 2 1
2.9 -3 0.1 129 0 2 1
3 -13.2 0.3 104 0 2 2
3 -13.1 0.4 60 0 2 2
3 -13.1 0.5 112 0 2 2
3 -13 0.4 115 0 2 2
3 -13 0.5 104 0 2 2
3 -12.8 0.5 115 0 2 2
3 -12.7 0.4 51 0 2 2
3 -12.6 0.4 78 0 2 2
3 -10.6 0.3 117 0 2 2
3 -10.5 0.2 141 0 2 2
3 -10.4 0.2 136 0 2 2
3.1 -13.2 0.5 115 0 2 2
3.1 -12.8 0.5 124 0 2 2
3.1 -12.6 0.4 119 0 2 2
3.1 -10.7 0.2 149 0 2 2
3.1 -10.6 0.2 138 0 2 2
3.2 -12.9 0.5 134 0 2 2
3.2 -12.8 0.5 133 0 2 2
3.2 -12.7 0.4 143 0 2 2
3.2 -12.6 0.3 112 0 2 2
3.2 -12.6 0.4 148 0 2 2
3.2 -10.7 0.1 125 0 2 2
3.3 -13 0.5 150 0 2 2
3.3 -12.8 0.4 140 0 2 2
3.3 -12.7 0.4 143 0 2 2
3.3 -12.6 0.3 139 0 2 2
3.4 -13.1 0.5 139 0 2 2
3.4 -13 0.4 135 0 2 2
3.4 -12.8 0.3 133 0 2 2
3.4 -12.6 0.3 138 0 2 2
3.5 -13.1 0.4 122 0 2 2
3.5 -13 0.4 135 0 2 2
3.5 -12.9 0.3 149 0 2 2
3.5 -12.8 0.3 147 0 2 2
3.5 -12.7 0.3 144 0 2 2
3.5 -12.5 0.2 140 0 2 2
3.5 -12.1 0.1 145 0 2 1
3.5 -11.5 0.1 149 0 2 1
3.5 -10.8 0.1 142 0 2 1
3.5 -10.2 0.1 145 0 2 1
3.5 -9.5 0.1 152 0 2 1
3.5 -8.9 0.1 129 0 2 1
3.5 -8.2 0.1 135 0 2 1
3.5 -7.6 0.1 134 0 2 1
3.5 -6.9 0.1 133 0 2 1
3.5 -6.3 0.1 131 0 2 1
3.5 -5.6 0.1 132 0 2 1
3.5 -5 0.1 132 0 2 1
3.5 -4.3 0.1 127 0 2 1
3.5 -3.7 0.1 135 0 2 1
3.6 -20 0 83 0 2 1
3.6 -19.4 0 122 0 2 1
3.6 -18.7 0 122 0 2 1
3.6 -18.1 0 107 0 2 1
3.6 -17.4 0 116 0 2 1
3.6 -16.8 0 114 0 2 1
3.6 -16.1 0 108 0 2 1
3.6 -13.1 0.3 123 0 2 2
3.6 -13.1 0.4 128 0 2 2
3.6 -13 0.3 137 0 2 2
3.6 -12.9 0.3 151 0 2 2
3.6 -12.6 0.2 121 0 2 2
3.6 -12.5 0.1 145 0 2 2
3.6 -12.5 0.2 143 0 2 2
3.7 -13.1 0.3 127 0 2 2
3.7 -12.9 0.2 147 0 2 2
3.7 -12.8 0.1 145 0 2 2
3.7 -12.8 0.2 147 0 2 2
3.7 -12.7 0.2 156 0 2 2
3.8 -12.9 0.2 134 0 2 2
4.2 -20 0 87 0 2 1
4.2 -19.4 0 102 0 2 1
4.2 -18.7 0 127 0 2 1
4.2 -18.1 0 114 0 2 1
4.2 -14.8 0.1 133 0 2 1
4.2 -14.1 0.1 116 0 2 1
4.2 -13.4 0.1 122 0 2 1
4.2 -12.8 0.1 150 0 2 1
4.2 -12.1 0.2 150 0 2 1
4.2 -11.5 0.2 146 0 2 1
4.2 -10.8 0.2 155 0 2 1
4.2 -10.2 0.2 150 0 2 1
4.2 -9.5 0.2 142 0 2 1
4.2 -8.8 0.2 133 0 2 1
4.2 -8.2 0.2 138 0 2 1
4.2 -7.5 0.1 134 0 2 1
4.2 -6.9 0.1 133 0 2 1
4.2 -6.2 0.1 130 0 2 1
4.2 -5.6 0.1 134 0 2 1
4.2 -5 0.1 138 0 2 1
4.2 -4.3 0.1 119 0 2 1
4.8 -14.1 0.1 123 0 2 1
4.8 -13.4 0.1 126 0 2 1
4.8 -12.8 0.2 135 0 2 1
4.8 -12.1 0.2 136 0 2 1
4.8 -11.5 0.2 62 0 2 2
4.8 -10.8 0.2 146 0 2 1
4.8 -10.1 0.2 140 0 2 1
4.8 -9.5 0.2 131 0 2 1
4.8 -8.8 0.2 147 0 2 1
4.8 -8.2 0.2 136 0 2 1
4.8 -7.5 0.2 132 0 2 1
4.8 -6.9 0.2 133 0 2 1
4.8 -6.2 0.1 136 0 2 1
4.8 -5.6 0.1 136 0 2 1
4.8 -5 0.2 125 0 2 1
4.9 -20 0 84 0 2 1
4.9 -19.4 0 113 0 2 1
4.9 -18.7 0 126 0 2 1
4.9 -18.1 0 127 0 2 1
4.9 -17.4 0 134 0 2 1
4.9 -16.8 0 104 0 2 1
4.9 -16.1 0 127 0 2 1
4.9 -15.4 0.1 132 0 2 1
4.9 -14.8 0.1 120 0 2 1
4.9 -11.8 0.2 57 0 2 2
4.9 -11.8 0.3 99 0 2 2
4.9 -11.8 0.4 83 0 2 2
4.9 -11.7 0.3 39 0 2 2
4.9 -11.4 0.2 41 0 2 2
5 -11.8 0.4 112 0 2 2
5 -11.7 0.5 136 0 2 2
5 -11.5 0.4 48 0 2 2
5 -11.4 0.3 46 0 2 2
5.1 -11.7 0.5 110 0 2 2
5.1 -11.6 0.6 79 0 2 2
5.1 -11.5 0.5 60 0 2 2
5.1 -11.4 0.4 59 0 2 2
5.2 -11.9 0.5 57 0 2 2
5.2 -11.6 0.6 87 0 2 2
5.2 -11.5 0.6 81 0 2 2
5.2 -11.4 0.5 115 0 2 2
5.4 -11.9 0.6 124 0 2 2
5.4 -11.6 0.6 134 0 2 2
5.4 -11.5 0.6 133 0 2 2
5.4 -11.2 0.5 113 0 2 2
5.4 -11.1 0.3 87 0 2 2
5.4 -11.1 0.4 143 0 2 2
5.4 -11.1 0.5 93 0 2 2
5.5 -20 0 84 0 2 1
5.5 -19.4 0 125 0 2 1
5.5 -18.7 0 129 0 2 1
5.5 -18.1 0 134 0 2 1
5.5 -17.4 0 140 0 2 1
5.5 -16.8 0 105 0 2 1
5.5 -16.1 0.1 126 0 2 1
5.5 -15.4 0.1 129 0 2 1
5.5 -14.8 0.1 123 0 2 1
5.5 -14.1 0.1 126 0 2 1
5.5 -13.4 0.2 130 0 2 1
5.5 -11.3 0.6 132 0 2 2
5.5 -11.2 0.3 119 0 2 2
5.5 -11.2 0.5 108 0 2 2
5.5 -11.2 0.6 117 0 2 2
5.5 -11.1 0.4 149 0 2 2
5.5 -10.8 0.2 136 0 2 1
5.5 -10.1 0.2 135 0 2 1
5.5 -9.5 0.2 137 0 2 1
5.5 -8.8 0.2 134 0 2 1
5.5 -8.2 0.2 141 0 2 1
5.5 -7.5 0.2 141 0 2 1
5.5 -6.9 0.2 136 0 2 1
5.5 -6.2 0.2 137 0 2 1
5.5 -5.6 0.2 135 0 2 1
5.6 -11.5 0.6 121 0 2 2
5.6 -11.4 0.6 136 0 2 2
5.7 -11.5 0.6 94 0 2 2
5.7 -11.3 0.4 131 0 2 2
5.8 -11.6 0.6 123 0 2 2
5.8 -11.5 0.6 104 0 2 2
5.8 -11.4 0.5 145 0 2 2
5.9 -11.4 0.3 132 0 2 2
5.9 -11.3 0.2 136 0 2 2
6.1 -11.4 0.3 130 0 2 1
6.1 -10.8 0.3 132 0 2 1
6.1 -10.1 0.3 129 0 2 1
6.1 -9.5 0.3 135 0 2 1
6.1 -8.8 0.3 134 0 2 1
6.1 -8.2 0.2 144 0 2 1
6.1 -7.5 0.2 141 0 2 1
6.1 -6.9 0.2 137 0 2 1
6.1 -6.2 0.2 133 0 2 1
6.2 -20 0 85 0 2 1
6.2 -19.4 0 135 0 2 1
6.2 -18.7 0 133 0 2 1
6.2 -18.1 0 137 0 2 1
6.2 -17.4 0 133 0 2 1
6.2 -16.7 0 118 0 2 1
6.2 -16.1 0.1 121 0 2 1
6.2 -15.4 0.1 123 0 2 1
6.2 -14.8 0.1 135 0 2 1
6.8 -20 0 88 0 2 1
6.8 -19.4 0 131 0 2 1
6.8 -18.7 0 136 0 2 1
6.8 -18.1 0 130 0 2 1
6.8 -17.4 0 122 0 2 1
6.8 -16.7 0 110 0 2 1
6.8 -16.1 0.1 104 0 2 1
6.8 -15.4 0.1 49 0 2 1
6.8 -12.8 0.2 123 0 2 1
6.8 -12.1 0.3 137 0 2 1
6.8 -11.4 0.3 141 0 2 1
6.8 -10.8 0.3 119 0 2 1
6.8 -10.1 0.3 142 0 2 1
6.8 -9.5 0.3 150 0 2 1
6.8 -8.8 0.3 132 0 2 1
6.8 -8.2 0.3 150 0 2 1
6.8 -7.5 0.2 141 0 2 1
6.8 -6.9 0.2 134 0 2 1
7.5 -20 0 87 0 2 1
7.5 -19.4 0 133 0 2 1
7.5 -18.7 0 131 0 2 1
7.5 -18.1 0 130 0 2 1
7.5 -17.4 0 96 0 2 1
7.5 -16.7 0.1 80 0 2 1
7.5 -14.7 0.2 119 0 2 1
7.5 -14.1 0.2 132 0 2 1
7.5 -13.4 0.2 129 0 2 1
7.5 -12.8 0.3 126 0 2 1
7.5 -12.1 0.3 133 0 2 1
7.5 -11.4 0.3 136 0 2 1
7.5 -10.8 0.3 147 0 2 1
7.5 -10.1 0.3 143 0 2 1
7.5 -9.5 0.3 150 0 2 1
7.5 -8.8 0.3 143 0 2 1
7.5 -8.2 0.3 146 0 2 1
7.5 -7.5 0.3 126 0 2 1
7.9 -15 0.4 52 0 2 3
7.9 -14.8 0.4 45 0 2 3
7.9 -14.5 0.3 42 0 2 3
7.9 -14.4 0.3 48 0 2 3
8 -15.2 0.2 49 0 2 3
8 -15 0.2 53 0 2 3
8 -15 0.7 52 0 2 3
8 -15 1 62 0 2 3
8 -14.7 0.7 57 0 2 3
8 -14.5 1.1 42 0 2 3
8 -14.3 0.3 44 0 2 3
8.1 -20 0 88 0 2 1
8.1 -19.4 0 133 0 2 1
8.1 -18.7 0 130 0 2 1
8.1 -18.1 0 128 0 2 1
8.1 -17.4 0 88 0 2 1
8.1 -16.7 0.1 57 0 2 1
8.1 -16.1 0.1 55 0 2 1
8.1 -15.4 0.6 50 0 2 3
8.1 -15.2 0.9 59 0 2 3
8.1 -15.1 1.1 60 0 2 3
8.1 -15.1 1.4 60 0 2 3
8.1 -14.9 1.4 52 0 2 3
8.1 -14.9 1.7 53 0 2 3
8.1 -14.8 1.4 47 0 2 3
8.1 -14.7 1.8 42 0 2 3
8.1 -14.4 1.1 63 0 2 3
8.1 -14.3 1 47 0 2 3
8.1 -14.1 0.2 64 0 2 1
8.1 -13.4 0.2 127 0 2 1
8.1 -12.8 0.3 128 0 2 1
8.1 -12.1 0.3 133 0 2 1
8.1 -11.4 0.3 136 0 2 1
8.1 -10.8 0.3 141 0 2 1
8.1 -10.1 0.3 146 0 2 1
8.1 -9.5 0.3 140 0 2 1
8.1 -8.8 0.3 148 0 2 1
8.1 -8.2 0.3 108 0 2 1
8.2 -15.8 0.4 41 0 2 3
8.2 -15.4 1.3 48 0 2 3
8.2 -15.3 1.5 54 0 2 3
8.2 -15.2 1.7 64 0 2 3
8.2 -15 1.7 59 0 2 3
8.2 -14.5 1.8 50 0 2 3
8.2 -14.5 1.9 50 0 2 3
8.2 -14.4 1.8 52 0 2 3
8.2 -14.4 2 77 0 2 3
8.2 -14.3 1.7 42 0 2 3
8.2 -14.3 1.8 36 0 2 3
8.2 -14.3 1.9 45 0 2 3
8.2 -14.1 0.9 51 0 2 3
8.2 -14 0.3 42 0 2 3
8.2 -14 0.5 50 0 2 3
8.3 -14.3 2 99 0 2 3
8.3 -14.2 1.9 101 0 2 3
8.3 -14.1 1.6 44 0 2 3
8.4 -16 0.8 49 0 2 3
8.4 -15.8 1.2 44 0 2 3
8.4 -15.7 1.5 42 0 2 3
8.4 -15.6 1.7 51 0 2 3
8.4 -14.1 1.7 46 0 2 3
8.4 -14 1.5 47 0 2 3
8.5 -16.4 0.6 52 0 2 3
8.5 -16.2 1 50 0 2 3
8.5 -16.1 1.3 53 0 2 3
8.5 -15.8 1.7 53 0 2 3
8.5 -15.7 1.7 53 0 2 3
8.5 -15.5 1.8 54 0 2 3
8.5 -13.9 1.1 45 0 2 3
8.5 -13.8 0.8 47 0 2 3
8.6 -16.7 0.2 46 0 2 3
8.6 -16.6 0.8 66 0 2 3
8.6 -16.3 1.2 50 0 2 3
8.6 -16.3 1.3 53 0 2 3
8.6 -16.2 1.7 45 0 2 3
8.6 -16 1.7 49 0 2 3
8.6 -15.5 1.8 57 0 2 3
8.6 -13.9 1.7 95 0 2 3
8.6 -13.7 1.3 37 0 2 3
8.6 -13.7 1.5 46 0 2 3
8.7 -16.5 1.4 60 0 2 3
8.7 -16.5 1.5 48 0 2 3
8.7 -16.4 1.5 65 0 2 3
8.7 -16.4 1.6 47 0 2 3
8.7 -16.4 1.7 63 0 2 3
8.7 -16.2 1.7 50 0 2 3
8.7 -13.6 1 34 0 2 3
8.8 -20 0 91 0 2 1
8.8 -19.4 0 135 0 2 1
8.8 -18.7 0 131 0 2 1
8.8 -18.1 0 129 0 2 1
8.8 -17.4 0 116 0 2 1
8.8 -16.4 1.7 68 0 2 3
8.8 -15.5 2 99 0 2 3
8.8 -13.4 0.7 28 0 2 3
8.8 -12.8 0.3 130 0 2 1
8.8 -12.1 0.3 137 0 2 1
8.8 -11.4 0.3 141 0 2 1
8.8 -10.8 0.3 149 0 2 1
8.8 -10.1 0.3 150 0 2 1
8.8 -9.5 0.3 141 0 2 1
8.8 -8.8 0.3 142 0 2 1
8.9 -16.5 1.7 65 0 2 3
8.9 -15.4 2 125 0 2 3
8.9 -15.4 2.1 125 0 2 3
8.9 -13.5 1.3 32 0 2 3
8.9 -13.5 1.5 93 0 2 3
8.9 -13.4 1.1 43 0 2 3
8.9 -13.4 1.3 40 0 2 3
8.9 -13.4 1.4 77 0 2 3
9 -13.3 1.2 42 0 2 3
9 -13.3 1.3 93 0 2 3
9 -13.2 0.9 36 0 2 3
9.1 -16.5 1.9 63 0 2 3
9.1 -15.3 2.1 109 0 2 3
9.1 -15 2.1 119 0 2 3
9.1 -13.1 1 47 0 2 3
9.1 -13.1 1.2 100 0 2 3
9.1 -13.1 1.3 85 0 2 3
9.1 -13 0.6 47 0 2 3
9.1 -13 0.9 50 0 2 3
9.2 -14.6 2.1 124 0 2 3
9.2 -14.1 2.2 129 0 2 3
9.2 -14 2.1 117 0 2 3
9.2 -13.9 2 112 0 2 3
9.2 -13.8 1.9 114 0 2 3
9.3 -12.8 0.8 44 0 2 3
9.3 -12.7 0.3 48 0 2 3
9.4 -16.6 2.1 69 0 2 3
9.4 -13.4 1.7 128 0 2 3
9.4 -13.2 1.4 131 0 2 3
9.4 -12.9 1.2 123 0 2 3
9.4 -12.8 1.1 96 0 2 3
9.4 -12.7 0.3 55 0 2 3
9.4 -12.1 0.3 142 0 2 1
9.4 -11.4 0.3 145 0 2 1
9.4 -10.8 0.3 147 0 2 1
9.4 -10.1 0.3 145 0 2 1
9.4 -9.5 0.3 135 0 2 1
9.5 -20 0 88 0 2 1
9.5 -19.4 0 132 0 2 1
9.5 -18.7 0 138 0 2 1
9.5 -16.6 2.1 97 0 2 3
9.5 -13.4 1.6 124 0 2 3
9.5 -13.1 1.4 127 0 2 3
9.5 -13 1.3 128 0 2 3
9.6 -12.5 0.9 96 0 2 3
9.6 -12.4 0.5 59 0 2 3
9.7 -16.4 2.2 78 0 2 3
9.7 -12.6 1 131 0 2 3
9.7 -12.5 0.9 148 0 2 3
9.7 -12.4 0.5 83 0 2 3
9.7 -12.4 0.7 94 0 2 3
9.7 -12.3 0.3 140 0 2 3
9.8 -16.3 2.2 89 0 2 3
9.8 -12.8 1.3 138 0 2 3
9.8 -12.7 1.1 132 0 2 3
9.8 -12.6 1 151 0 2 3
9.8 -12.5 0.9 129 0 2 3
9.8 -12.4 0.7 109 0 2 3
9.9 -16 2.2 103 0 2 3
9.9 -15.7 2.2 85 0 2 3
9.9 -13.2 1.6 162 0 2 3
9.9 -13 1.4 155 0 2 3
10 -15.4 2.3 103 0 2 3
10 -15 2.3 100 0 2 3
10 -14.5 2.3 120 0 2 3
10 -13.9 2.4 117 0 2 3
10 -13.4 1.8 154 0 2 3
10.1 -20 0 88 0 2 1
10.1 -13.8 2.3 132 0 2 3
10.1 -13.7 2.2 152 0 2 3
10.1 -13.6 2 166 0 2 3
10.1 -13.5 2 157 0 2 3
10.1 -12.4 0.5 97 0 2 3
10.1 -12.4 0.7 147 0 2 3
10.1 -12.1 0.3 146 0 2 1
10.1 -11.4 0.3 147 0 2 1
10.1 -10.8 0.3 147 0 2 1
10.2 -15.3 2.3 139 0 2 3
10.2 -15 2.3 128 0 2 3
10.2 -14.4 2.4 115 0 2 3
10.2 -13.8 2.2 129 0 2 3
10.2 -13.7 2.2 169 0 2 3
10.4 -14.9 2.3 125 0 2 3
10.4 -13.6 1.9 167 0 2 3
10.4 -13.3 1.5 171 0 2 3
10.4 -13.1 1.4 167 0 2 3
10.5 -13.8 2.1 117 0 2 3
10.5 -13.5 1.7 168 0 2 3
10.5 -13 1.1 160 0 2 3
10.5 -12.9 1 162 0 2 3
10.5 -12.4 0.5 129 0 2 3
10.7 -12.1 0.3 151 0 2 1
10.7 -11.4 0.3 142 0 2 1
10.8 -13.9 2 161 0 2 3
10.9 -14 2 137 0 2 3
10.9 -13.8 1.8 167 0 2 3
10.9 -13.6 1.6 163 0 2 3
10.9 -12.9 0.8 155 0 2 3
11 -14 2 144 0 2 3
11 -13.8 1.8 165 0 2 3
11 -13.6 1.5 161 0 2 3
11 -13.6 1.6 161 0 2 3
11 -12.7 0.5 162 0 2 3
11 -12.4 0.3 145 0 2 3
11.1 -14 1.9 142 0 2 3
11.1 -13.8 1.7 163 0 2 3
11.1 -13.5 1.3 161 0 2 3
11.1 -13.5 1.4 161 0 2 3
11.2 -14 1.8 130 0 2 3
11.2 -13.3 1.1 164 0 2 3
11.3 -13.7 1.4 166 0 2 3
11.4 -13.8 1.5 83 0 2 3
11.4 -13.5 1.2 159 0 2 3
11.4 -13.4 1.1 165 0 2 3
11.4 -13.2 0.8 169 0 2 3
11.4 -12.1 0.2 146 0 2 1
11.4 -11.4 0.3 146 0 2 1
11.5 -13.7 1.3 150 0 2 3
11.5 -12.7 0.3 147 0 2 3
11.6 -13.6 1.1 143 0 2 3
11.6 -13.6 1.2 103 0 2 3
11.6 -13.3 0.8 150 0 2 3
11.6 -13 0.6 136 0 2 3
11.6 -12.8 0.4 153 0 2 3
12.1 -12.8 0.2 149 0 2 1
12.1 -12.1 0.2 146 0 2 1
12.7 -13.4 0.1 142 0 2 1
12.7 -12.8 0.2 155 0 2 1
13.4 -14.8 0.1 114 0 2 1
13.4 -14.1 0.1 127 0 2 1
13.4 -13.4 0.1 147 0 2 1
14 -15.4 0 92 0 2 1
14 -14.8 0 119 0 2 1
14 -14.1 0.1 132 0 2 1
14.7 -16.1 0 106 0 2 1
14.7 -15.4 0 109 0 2 1
14.7 -14.8 0 116 0 2 1
15.4 -16.8 0 101 0 2 1
15.4 -16.1 0 104 0 2 1
15.4 -15.5 0 112 0 2 1
16 -17.4 0 107 0 2 1
16 -16.8 0 103 0 2 1
16 -16.1 0 113 0 2 1
16.7 -18.1 0 119 0 2 1
16.7 -17.4 0 116 0 2 1
16.7 -16.8 0 107 0 2 1
17.3 -19.4 0 113 0 2 1
17.3 -18.7 0 119 0 2 1
17.3 -18.1 0 117 0 2 1
17.3 -17.4 0 105 0 2 1
18 -20 0 100 0 2 1
18 -19.4 0 150 0 2 1
18 -18.7 0 160 0 2 1
18 -18.1 0 143 0 2 1
18.6 -20 0 105 0 2 1
18.6 -19.4 0 136 0 2 1
18.6 -18.7 0 156 0 2 1
19.3 -20 0 88 0 2 1
19.3 -19.4 0 152 0 2 1
20 -20 0 89 0 2 1
